19.222 56.340 -7.967 0.855090 -0.160421 0.493038
18.272 53.500 -7.247 0.855090 -0.160421 0.493038
52.726 57.853 0.098 -0.964671 -0.253463 0.071877
52.824 57.260 -0.669 -0.964671 -0.253463 0.071877
52.357 59.333 0.366 -0.964671 -0.253463 0.071877
52.494 58.678 -0.102 -0.964671 -0.253463 0.071877
52.824 57.012 -1.532 -0.964671 -0.253463 0.071877
52.127 60.052 -0.194 -0.964671 -0.253463 0.071877
52.424 58.623 -1.228 -0.964671 -0.253463 0.071877
52.030 60.144 -1.162 -0.964671 -0.253463 0.071877
52.224 59.474 -0.915 -0.964671 -0.253463 0.071877
52.630 57.869 -1.118 -0.964671 -0.253463 0.071877
51.985 59.872 -2.013 -0.943269 -0.251998 0.216195
52.182 57.979 -3.380 -0.943269 -0.251998 0.216195
52.574 57.781 -1.894 -0.943269 -0.251998 0.216195
52.305 58.203 -2.578 -0.943269 -0.251998 0.216195
52.230 59.176 -1.761 -0.943269 -0.251998 0.216195
52.494 57.120 -3.020 -0.943269 -0.251998 0.216195
52.056 58.992 -2.739 -0.943269 -0.251998 0.216195
51.830 59.300 -3.367 -0.943269 -0.251998 0.216195
51.343 60.473 -4.120 -0.943269 -0.251998 0.216195
51.652 60.603 -2.614 -0.943269 -0.251998 0.216195
51.802 58.633 -4.273 -0.943269 -0.251998 0.216195
51.592 60.208 -3.342 -0.943269 -0.251998 0.216195
52.082 57.590 -4.273 -0.943269 -0.251998 0.216195
51.557 59.719 -4.070 -0.943269 -0.251998 0.216195
51.311 57.438 -6.384 -0.899570 -0.254706 0.354822
51.294 59.655 -4.840 -0.899570 -0.254706 0.354822
51.454 58.873 -4.991 -0.899570 -0.254706 0.354822
51.292 58.560 -5.629 -0.899570 -0.254706 0.354822
51.788 57.512 -5.115 -0.899570 -0.254706 0.354822
50.957 59.226 -6.005 -0.899570 -0.254706 0.354822
51.028 58.416 -6.404 -0.899570 -0.254706 0.354822
50.799 60.393 -5.570 -0.899570 -0.254706 0.354822
50.988 60.692 -4.875 -0.899570 -0.254706 0.354822
50.413 60.470 -6.500 -0.899570 -0.254706 0.354822
50.386 57.676 -8.016 -0.837496 -0.253554 0.484057
50.294 59.506 -7.217 -0.837496 -0.253554 0.484057
50.866 57.047 -7.514 -0.837496 -0.253554 0.484057
50.681 57.928 -7.372 -0.837496 -0.253554 0.484057
50.301 58.815 -7.566 -0.837496 -0.253554 0.484057
50.228 57.132 -8.574 -0.837496 -0.253554 0.484057
49.949 58.164 -8.516 -0.837496 -0.253554 0.484057
49.689 60.624 -7.679 -0.837496 -0.253554 0.484057
49.342 60.274 -8.464 -0.837496 -0.253554 0.484057
49.751 59.155 -8.341 -0.837496 -0.253554 0.484057
48.625 57.653 -10.545 -0.756781 -0.253309 0.602592
48.835 59.487 -9.512 -0.756781 -0.253309 0.602592
49.124 58.278 -9.657 -0.756781 -0.253309 0.602592
48.652 58.574 -10.124 -0.756781 -0.253309 0.602592
49.115 57.130 -10.150 -0.756781 -0.253309 0.602592
49.454 58.737 -9.051 -0.756781 -0.253309 0.602592
49.294 59.630 -8.877 -0.756781 -0.253309 0.602592
49.712 57.201 -9.373 -0.756781 -0.253309 0.602592
48.202 60.417 -9.915 -0.756781 -0.253309 0.602592
48.798 60.698 -9.050 -0.756781 -0.253309 0.602592
47.646 60.397 -10.621 -0.756781 -0.253309 0.602592
48.200 58.393 -10.767 -0.756781 -0.253309 0.602592
48.307 59.534 -10.154 -0.756781 -0.253309 0.602592
48.134 57.518 -11.217 -0.756781 -0.253309 0.602592
47.778 59.584 -10.796 -0.756781 -0.253309 0.602592
46.844 57.237 -12.525 -0.656380 -0.254644 0.710156
47.176 58.673 -11.705 -0.656380 -0.254644 0.710156
47.260 57.870 -11.913 -0.656380 -0.254644 0.710156
47.170 59.680 -11.351 -0.656380 -0.254644 0.710156
46.298 59.386 -12.265 -0.656380 -0.254644 0.710156
46.181 58.180 -12.804 -0.656380 -0.254644 0.710156
46.082 60.188 -12.178 -0.656380 -0.254644 0.710156
46.760 60.354 -11.490 -0.656380 -0.254644 0.710156
46.645 58.508 -12.256 -0.656380 -0.254644 0.710156
45.364 59.335 -13.031 -0.544026 -0.254087 0.799672
44.692 57.395 -14.103 -0.544026 -0.254087 0.799672
46.038 57.171 -13.257 -0.544026 -0.254087 0.799672
45.282 57.447 -13.684 -0.544026 -0.254087 0.799672
44.995 58.178 -13.649 -0.544026 -0.254087 0.799672
45.568 58.430 -13.178 -0.544026 -0.254087 0.799672
44.920 60.618 -12.926 -0.544026 -0.254087 0.799672
44.129 59.907 -13.692 -0.544026 -0.254087 0.799672
44.169 58.770 -14.024 -0.544026 -0.254087 0.799672
44.753 59.964 -13.247 -0.544026 -0.254087 0.799672
43.968 57.588 -14.536 -0.544026 -0.254087 0.799672
43.566 60.651 -13.840 -0.544026 -0.254087 0.799672
44.278 60.655 -13.353 -0.544026 -0.254087 0.799672
44.629 59.153 -13.589 -0.544026 -0.254087 0.799672
42.964 59.276 -14.537 -0.421251 -0.252147 0.871189
42.909 58.326 -14.840 -0.421251 -0.252147 0.871189
43.028 57.081 -15.144 -0.421251 -0.252147 0.871189
42.164 56.787 -15.645 -0.421251 -0.252147 0.871189
43.522 59.706 -14.143 -0.421251 -0.252147 0.871189
42.384 57.865 -15.226 -0.421251 -0.252147 0.871189
41.645 57.866 -15.581 -0.421251 -0.252147 0.871189
41.375 60.027 -15.084 -0.421251 -0.252147 0.871189
42.027 58.869 -15.106 -0.421251 -0.252147 0.871189
42.328 60.375 -14.524 -0.421251 -0.252147 0.871189
41.426 59.267 -15.280 -0.421251 -0.252147 0.871189
42.230 59.670 -14.776 -0.421251 -0.252147 0.871189
41.676 60.652 -14.757 -0.421251 -0.252147 0.871189
40.889 56.976 -16.084 -0.284420 -0.252976 0.924721
40.363 57.550 -16.089 -0.284420 -0.252976 0.924721
40.764 58.313 -15.757 -0.284420 -0.252976 0.924721
39.611 57.743 -16.268 -0.284420 -0.252976 0.924721
40.563 59.078 -15.609 -0.284420 -0.252976 0.924721
40.077 60.668 -15.323 -0.284420 -0.252976 0.924721
39.827 58.951 -15.871 -0.284420 -0.252976 0.924721
38.895 59.463 -16.018 -0.284420 -0.252976 0.924721
40.074 59.794 -15.564 -0.284420 -0.252976 0.924721
39.178 60.548 -15.634 -0.284420 -0.252976 0.924721
39.101 57.129 -16.594 -0.284420 -0.252976 0.924721
39.138 58.666 -16.161 -0.284420 -0.252976 0.924721
40.824 60.604 -15.111 -0.284420 -0.252976 0.924721
38.396 57.869 -16.520 -0.144236 -0.252744 0.956722
37.951 59.088 -16.265 -0.144236 -0.252744 0.956722
37.606 58.038 -16.595 -0.144236 -0.252744 0.956722
38.482 60.130 -15.909 -0.144236 -0.252744 0.956722
36.867 56.955 -16.993 -0.144236 -0.252744 0.956722
38.277 57.166 -16.724 -0.144236 -0.252744 0.956722
37.760 60.146 -16.013 -0.144236 -0.252744 0.956722
36.828 58.199 -16.669 -0.144236 -0.252744 0.956722
37.093 59.460 -16.296 -0.144236 -0.252744 0.956722
36.383 57.530 -16.913 -0.144236 -0.252744 0.956722
36.335 60.105 -16.239 -0.144236 -0.252744 0.956722
36.431 58.975 -16.524 -0.144236 -0.252744 0.956722
35.217 57.969 -16.806 0.001193 -0.254023 0.967197
35.689 58.754 -16.600 0.001193 -0.254023 0.967197
35.634 57.215 -17.003 0.001193 -0.254023 0.967197
34.330 57.369 -16.963 0.001193 -0.254023 0.967197
34.445 59.712 -16.349 0.001193 -0.254023 0.967197
33.755 59.177 -16.489 0.001193 -0.254023 0.967197
34.598 58.837 -16.579 0.001193 -0.254023 0.967197
34.359 60.635 -16.108 0.001193 -0.254023 0.967197
35.425 60.474 -16.150 0.001193 -0.254023 0.967197
33.723 60.093 -16.250 0.001193 -0.254023 0.967197
35.364 59.736 -16.343 0.001193 -0.254023 0.967197
33.722 58.220 -16.740 0.001193 -0.254023 0.967197
31.860 57.832 -16.569 0.144236 -0.252744 0.956722
32.890 58.957 -16.426 0.144236 -0.252744 0.956722
31.463 56.996 -16.730 0.144236 -0.252744 0.956722
33.233 57.604 -16.836 0.144236 -0.252744 0.956722
33.011 56.742 -17.031 0.144236 -0.252744 0.956722
32.554 58.129 -16.595 0.144236 -0.252744 0.956722
31.830 60.610 -15.829 0.144236 -0.252744 0.956722
32.058 59.639 -16.120 0.144236 -0.252744 0.956722
32.142 58.856 -16.340 0.144236 -0.252744 0.956722
31.417 58.531 -16.317 0.144236 -0.252744 0.956722
32.736 60.387 -16.024 0.144236 -0.252744 0.956722
31.374 59.318 -16.102 0.144236 -0.252744 0.956722
29.764 57.801 -16.060 0.284420 -0.252976 0.924721
30.648 57.154 -16.510 0.284420 -0.252976 0.924721
29.931 58.560 -15.903 0.284420 -0.252976 0.924721
30.482 59.488 -15.819 0.284420 -0.252976 0.924721
30.875 57.907 -16.374 0.284420 -0.252976 0.924721
31.155 60.205 -15.830 0.284420 -0.252976 0.924721
28.957 57.482 -15.898 0.284420 -0.252976 0.924721
29.942 56.927 -16.354 0.284420 -0.252976 0.924721
29.241 60.428 -15.179 0.284420 -0.252976 0.924721
29.341 59.526 -15.457 0.284420 -0.252976 0.924721
29.943 60.701 -15.321 0.284420 -0.252976 0.924721
28.683 59.111 -15.368 0.284420 -0.252976 0.924721
28.853 58.406 -15.613 0.284420 -0.252976 0.924721
28.448 59.961 -15.018 0.421251 -0.252147 0.871189
26.929 57.357 -15.043 0.421251 -0.252147 0.871189
27.516 58.731 -14.926 0.421251 -0.252147 0.871189
27.947 57.819 -15.399 0.421251 -0.252147 0.871189
27.054 58.057 -14.900 0.421251 -0.252147 0.871189
27.891 57.032 -15.601 0.421251 -0.252147 0.871189
26.435 58.417 -14.497 0.421251 -0.252147 0.871189
26.864 59.706 -14.329 0.421251 -0.252147 0.871189
27.328 60.593 -14.295 0.421251 -0.252147 0.871189
27.619 59.764 -14.676 0.421251 -0.252147 0.871189
26.181 57.265 -14.709 0.421251 -0.252147 0.871189
27.988 60.621 -14.605 0.421251 -0.252147 0.871189
26.651 60.555 -13.980 0.421251 -0.252147 0.871189
26.909 58.983 -14.561 0.421251 -0.252147 0.871189
24.486 57.517 -13.505 0.544026 -0.254087 0.799672
25.330 58.357 -13.814 0.544026 -0.254087 0.799672
26.147 59.147 -14.120 0.544026 -0.254087 0.799672
25.615 59.383 -13.683 0.544026 -0.254087 0.799672
25.143 57.644 -13.912 0.544026 -0.254087 0.799672
24.386 58.510 -13.121 0.544026 -0.254087 0.799672
25.300 60.453 -13.129 0.544026 -0.254087 0.799672
24.985 59.031 -13.365 0.544026 -0.254087 0.799672
24.409 60.648 -12.459 0.544026 -0.254087 0.799672
24.295 59.756 -12.664 0.544026 -0.254087 0.799672
26.023 60.709 -13.541 0.544026 -0.254087 0.799672
23.866 57.540 -13.074 0.544026 -0.254087 0.799672
23.326 58.612 -12.192 0.656380 -0.254644 0.710156
23.815 58.206 -12.791 0.656380 -0.254644 0.710156
23.695 59.616 -12.176 0.656380 -0.254644 0.710156
22.755 57.184 -12.172 0.656380 -0.254644 0.710156
23.902 58.912 -12.620 0.656380 -0.254644 0.710156
23.192 57.829 -12.347 0.656380 -0.254644 0.710156
22.519 59.596 -11.092 0.656380 -0.254644 0.710156
22.210 58.571 -11.171 0.656380 -0.254644 0.710156
23.099 59.430 -11.689 0.656380 -0.254644 0.710156
22.272 57.912 -11.464 0.656380 -0.254644 0.710156
22.459 60.345 -10.769 0.656380 -0.254644 0.710156
23.479 60.189 -11.771 0.656380 -0.254644 0.710156
23.078 60.665 -11.228 0.656380 -0.254644 0.710156
21.676 58.533 -10.553 0.756781 -0.253309 0.602592
21.180 57.185 -10.497 0.756781 -0.253309 0.602592
20.954 57.801 -9.956 0.756781 -0.253309 0.602592
21.794 57.239 -11.244 0.756781 -0.253309 0.602592
21.728 59.255 -10.315 0.756781 -0.253309 0.602592
21.558 57.761 -10.730 0.756781 -0.253309 0.602592
21.572 59.885 -9.855 0.756781 -0.253309 0.602592
20.967 60.230 -8.951 0.756781 -0.253309 0.602592
21.872 60.539 -9.956 0.756781 -0.253309 0.602592
20.770 59.015 -9.215 0.756781 -0.253309 0.602592
20.416 57.572 -9.377 0.756781 -0.253309 0.602592
20.509 58.335 -9.173 0.756781 -0.253309 0.602592
21.462 60.688 -9.380 0.756781 -0.253309 0.602592
19.891 58.425 -8.104 0.837496 -0.253554 0.484057
19.161 57.140 -7.511 0.837496 -0.253554 0.484057
19.984 57.580 -8.707 0.837496 -0.253554 0.484057
20.561 59.669 -8.613 0.837496 -0.253554 0.484057
20.159 59.199 -8.162 0.837496 -0.253554 0.484057
20.152 59.868 -7.800 0.837496 -0.253554 0.484057
19.716 59.772 -7.095 0.837496 -0.253554 0.484057
19.332 58.802 -6.938 0.837496 -0.253554 0.484057
19.421 58.102 -7.457 0.837496 -0.253554 0.484057
20.573 60.321 -8.291 0.837496 -0.253554 0.484057
20.209 60.575 -7.528 0.837496 -0.253554 0.484057
19.677 60.527 -6.633 0.837496 -0.253554 0.484057
51.851 61.080 0.202 -0.936458 -0.343763 0.069806
51.482 62.082 0.192 -0.936458 -0.343763 0.069806
51.553 61.746 -0.506 -0.936458 -0.343763 0.069806
51.800 60.931 -1.205 -0.936458 -0.343763 0.069806
51.206 62.857 0.306 -0.936458 -0.343763 0.069806
50.586 64.572 0.419 -0.936458 -0.343763 0.069806
50.537 64.550 -0.339 -0.936458 -0.343763 0.069806
51.380 62.092 -1.131 -0.936458 -0.343763 0.069806
50.469 64.568 -1.160 -0.936458 -0.343763 0.069806
51.180 62.704 -0.798 -0.936458 -0.343763 0.069806
50.797 63.783 -0.622 -0.936458 -0.343763 0.069806
50.806 63.909 0.112 -0.936458 -0.343763 0.069806
50.907 63.327 -1.397 -0.936458 -0.343763 0.069806
51.218 61.313 -3.411 -0.916166 -0.342666 0.207894
50.977 62.817 -1.994 -0.916166 -0.342666 0.207894
51.240 62.022 -2.146 -0.916166 -0.342666 0.207894
51.590 61.211 -1.948 -0.916166 -0.342666 0.207894
51.013 62.211 -2.834 -0.916166 -0.342666 0.207894
50.646 63.705 -1.986 -0.916166 -0.342666 0.207894
50.196 64.459 -2.718 -0.916166 -0.342666 0.207894
50.740 62.338 -3.820 -0.916166 -0.342666 0.207894
50.551 63.331 -3.014 -0.916166 -0.342666 0.207894
50.236 63.786 -3.650 -0.916166 -0.342666 0.207894
49.935 64.558 -3.696 -0.916166 -0.342666 0.207894
50.535 61.579 -5.155 -0.874245 -0.343290 0.343290
50.495 61.110 -5.727 -0.874245 -0.343290 0.343290
50.397 62.478 -4.607 -0.874245 -0.343290 0.343290
50.309 63.137 -4.171 -0.874245 -0.343290 0.343290
50.995 61.256 -4.306 -0.874245 -0.343290 0.343290
49.570 64.337 -4.852 -0.874245 -0.343290 0.343290
50.148 61.404 -6.316 -0.874245 -0.343290 0.343290
49.346 64.181 -5.578 -0.874245 -0.343290 0.343290
50.085 62.501 -5.379 -0.874245 -0.343290 0.343290
49.939 63.225 -5.026 -0.874245 -0.343290 0.343290
49.892 62.301 -6.070 -0.874245 -0.343290 0.343290
49.478 63.373 -6.051 -0.874245 -0.343290 0.343290
49.061 62.298 -7.566 -0.813893 -0.344278 0.468028
49.781 61.256 -7.081 -0.813893 -0.344278 0.468028
49.097 63.295 -6.774 -0.813893 -0.344278 0.468028
49.547 61.961 -6.971 -0.813893 -0.344278 0.468028
49.203 61.471 -7.925 -0.813893 -0.344278 0.468028
48.762 61.759 -8.479 -0.813893 -0.344278 0.468028
48.552 64.270 -7.005 -0.813893 -0.344278 0.468028
48.307 63.700 -7.846 -0.813893 -0.344278 0.468028
48.737 63.150 -7.504 -0.813893 -0.344278 0.468028
48.639 62.494 -8.154 -0.813893 -0.344278 0.468028
48.933 64.602 -6.103 -0.813893 -0.344278 0.468028
48.097 64.576 -7.569 -0.813893 -0.344278 0.468028
48.248 61.378 -9.347 -0.734814 -0.342264 0.585580
47.862 63.748 -8.441 -0.734814 -0.342264 0.585580
47.981 62.335 -9.120 -0.734814 -0.342264 0.585580
47.764 61.118 -10.107 -0.734814 -0.342264 0.585580
47.817 63.077 -8.890 -0.734814 -0.342264 0.585580
47.577 64.450 -8.387 -0.734814 -0.342264 0.585580
46.988 63.901 -9.447 -0.734814 -0.342264 0.585580
47.215 62.321 -10.089 -0.734814 -0.342264 0.585580
47.030 64.603 -8.982 -0.734814 -0.342264 0.585580
47.194 62.972 -9.734 -0.734814 -0.342264 0.585580
46.467 64.655 -9.658 -0.734814 -0.342264 0.585580
46.678 62.647 -10.476 -0.638804 -0.344726 0.687818
46.170 63.258 -10.643 -0.638804 -0.344726 0.687818
46.407 61.761 -11.170 -0.638804 -0.344726 0.687818
46.086 60.920 -11.888 -0.638804 -0.344726 0.687818
46.608 63.496 -10.118 -0.638804 -0.344726 0.687818
47.106 61.626 -10.589 -0.638804 -0.344726 0.687818
46.151 62.485 -11.046 -0.638804 -0.344726 0.687818
45.514 63.024 -11.368 -0.638804 -0.344726 0.687818
45.186 63.779 -11.296 -0.638804 -0.344726 0.687818
45.682 64.022 -10.715 -0.638804 -0.344726 0.687818
45.164 64.570 -10.922 -0.638804 -0.344726 0.687818
45.521 61.888 -11.929 -0.638804 -0.344726 0.687818
43.974 61.552 -13.173 -0.530251 -0.343294 0.775231
45.271 61.343 -12.381 -0.530251 -0.343294 0.775231
44.216 62.258 -12.696 -0.530251 -0.343294 0.775231
44.924 62.543 -12.086 -0.530251 -0.343294 0.775231
44.406 63.540 -11.999 -0.530251 -0.343294 0.775231
43.100 64.091 -12.645 -0.530251 -0.343294 0.775231
43.495 63.209 -12.766 -0.530251 -0.343294 0.775231
44.089 64.346 -11.858 -0.530251 -0.343294 0.775231
44.120 63.008 -12.429 -0.530251 -0.343294 0.775231
43.379 61.910 -13.420 -0.530251 -0.343294 0.775231
43.273 62.598 -13.188 -0.530251 -0.343294 0.775231
42.892 61.198 -13.960 -0.406716 -0.344384 0.846157
42.540 62.389 -13.646 -0.406716 -0.344384 0.846157
42.159 61.295 -14.273 -0.406716 -0.344384 0.846157
42.867 63.403 -13.077 -0.406716 -0.344384 0.846157
40.946 64.579 -13.525 -0.406716 -0.344384 0.846157
41.483 63.448 -13.725 -0.406716 -0.344384 0.846157
40.905 63.880 -13.828 -0.406716 -0.344384 0.846157
41.652 62.484 -14.035 -0.406716 -0.344384 0.846157
41.370 61.739 -14.473 -0.406716 -0.344384 0.846157
42.149 64.173 -13.110 -0.406716 -0.344384 0.846157
40.963 62.755 -14.257 -0.406716 -0.344384 0.846157
42.233 63.281 -13.431 -0.406716 -0.344384 0.846157
42.598 64.669 -12.692 -0.406716 -0.344384 0.846157
39.858 62.929 -14.533 -0.277424 -0.342700 0.897548
40.045 61.951 -14.850 -0.277424 -0.342700 0.897548
40.672 61.471 -14.840 -0.277424 -0.342700 0.897548
39.357 61.700 -15.158 -0.277424 -0.342700 0.897548
40.350 63.464 -14.176 -0.277424 -0.342700 0.897548
39.212 64.261 -14.223 -0.277424 -0.342700 0.897548
38.847 62.500 -15.009 -0.277424 -0.342700 0.897548
39.100 63.378 -14.595 -0.277424 -0.342700 0.897548
40.088 64.500 -13.861 -0.277424 -0.342700 0.897548
36.618 60.748 -16.025 -0.139376 -0.343610 0.928712
37.759 61.470 -15.586 -0.139376 -0.343610 0.928712
38.053 62.296 -15.236 -0.139376 -0.343610 0.928712
38.182 64.039 -14.572 -0.139376 -0.343610 0.928712
38.058 63.104 -14.937 -0.139376 -0.343610 0.928712
37.427 62.800 -15.144 -0.139376 -0.343610 0.928712
37.012 61.996 -15.504 -0.139376 -0.343610 0.928712
38.500 61.034 -15.636 -0.139376 -0.343610 0.928712
37.456 60.853 -15.860 -0.139376 -0.343610 0.928712
36.237 62.780 -15.331 -0.139376 -0.343610 0.928712
36.582 64.123 -14.782 -0.139376 -0.343610 0.928712
37.399 63.567 -14.865 -0.139376 -0.343610 0.928712
36.267 61.858 -15.667 -0.139376 -0.343610 0.928712
37.430 64.507 -14.512 -0.139376 -0.343610 0.928712
34.921 61.654 -15.746 0.001253 -0.344659 0.938727
35.370 62.883 -15.296 0.001253 -0.344659 0.938727
35.735 63.615 -15.028 0.001253 -0.344659 0.938727
34.914 62.348 -15.492 0.001253 -0.344659 0.938727
34.307 64.433 -14.729 0.001253 -0.344659 0.938727
34.604 63.414 -15.102 0.001253 -0.344659 0.938727
35.018 64.265 -14.790 0.001253 -0.344659 0.938727
33.854 62.266 -15.522 0.001253 -0.344659 0.938727
33.767 61.443 -15.823 0.001253 -0.344659 0.938727
35.961 64.652 -14.649 0.001253 -0.344659 0.938727
33.931 63.701 -14.997 0.001253 -0.344659 0.938727
33.375 60.757 -16.021 0.139376 -0.343610 0.928712
32.535 62.169 -15.372 0.139376 -0.343610 0.928712
33.178 62.717 -15.266 0.139376 -0.343610 0.928712
32.673 61.131 -15.776 0.139376 -0.343610 0.928712
31.963 61.523 -15.524 0.139376 -0.343610 0.928712
32.546 63.756 -14.786 0.139376 -0.343610 0.928712
33.222 64.244 -14.708 0.139376 -0.343610 0.928712
31.926 64.175 -14.538 0.139376 -0.343610 0.928712
31.472 63.214 -14.825 0.139376 -0.343610 0.928712
31.565 62.239 -15.199 0.139376 -0.343610 0.928712
32.287 62.874 -15.073 0.139376 -0.343610 0.928712
30.590 61.781 -15.111 0.277424 -0.342700 0.897548
29.650 61.697 -14.853 0.277424 -0.342700 0.897548
31.007 60.872 -15.587 0.277424 -0.342700 0.897548
30.853 62.770 -14.813 0.277424 -0.342700 0.897548
31.206 64.024 -14.442 0.277424 -0.342700 0.897548
30.725 63.485 -14.500 0.277424 -0.342700 0.897548
30.042 62.322 -14.735 0.277424 -0.342700 0.897548
29.597 64.379 -13.810 0.277424 -0.342700 0.897548
29.642 63.426 -14.189 0.277424 -0.342700 0.897548
30.353 64.499 -13.997 0.277424 -0.342700 0.897548
29.193 62.480 -14.412 0.277424 -0.342700 0.897548
28.863 61.111 -14.834 0.277424 -0.342700 0.897548
28.114 62.038 -14.103 0.406716 -0.344384 0.846157
28.209 62.722 -13.871 0.406716 -0.344384 0.846157
28.519 63.423 -13.736 0.406716 -0.344384 0.846157
27.324 61.614 -13.895 0.406716 -0.344384 0.846157
28.978 63.991 -13.727 0.406716 -0.344384 0.846157
27.272 63.878 -12.951 0.406716 -0.344384 0.846157
27.146 62.622 -13.400 0.406716 -0.344384 0.846157
27.856 64.454 -12.998 0.406716 -0.344384 0.846157
28.692 64.625 -13.332 0.406716 -0.344384 0.846157
25.498 61.302 -12.924 0.530251 -0.343294 0.775231
26.288 62.290 -13.025 0.530251 -0.343294 0.775231
26.356 63.302 -12.624 0.530251 -0.343294 0.775231
25.593 62.190 -12.595 0.530251 -0.343294 0.775231
26.614 61.534 -13.582 0.530251 -0.343294 0.775231
24.900 61.324 -12.506 0.530251 -0.343294 0.775231
26.593 64.494 -12.257 0.530251 -0.343294 0.775231
24.967 63.124 -11.755 0.530251 -0.343294 0.775231
25.360 64.129 -11.579 0.530251 -0.343294 0.775231
25.586 63.277 -12.110 0.530251 -0.343294 0.775231
24.761 62.108 -12.064 0.530251 -0.343294 0.775231
25.962 64.480 -11.834 0.530251 -0.343294 0.775231
23.512 61.248 -11.350 0.638804 -0.344726 0.687818
24.298 63.158 -11.126 0.638804 -0.344726 0.687818
23.010 61.375 -10.821 0.638804 -0.344726 0.687818
24.111 61.165 -11.948 0.638804 -0.344726 0.687818
23.878 62.331 -11.150 0.638804 -0.344726 0.687818
24.788 63.836 -11.243 0.638804 -0.344726 0.687818
24.756 64.530 -10.867 0.638804 -0.344726 0.687818
23.998 64.099 -10.379 0.638804 -0.344726 0.687818
23.235 62.349 -10.544 0.638804 -0.344726 0.687818
23.452 63.078 -10.382 0.638804 -0.344726 0.687818
23.407 64.005 -9.878 0.638804 -0.344726 0.687818
22.242 61.809 -9.708 0.734814 -0.342264 0.585580
22.711 62.276 -10.022 0.734814 -0.342264 0.585580
21.686 61.536 -9.172 0.734814 -0.342264 0.585580
22.326 62.566 -9.369 0.734814 -0.342264 0.585580
22.292 61.191 -10.133 0.734814 -0.342264 0.585580
22.752 63.198 -9.534 0.734814 -0.342264 0.585580
21.778 63.208 -8.306 0.734814 -0.342264 0.585580
22.232 64.216 -8.284 0.734814 -0.342264 0.585580
22.206 63.135 -8.885 0.734814 -0.342264 0.585580
23.091 64.481 -9.206 0.734814 -0.342264 0.585580
21.438 62.411 -8.347 0.734814 -0.342264 0.585580
21.086 61.068 -8.694 0.734814 -0.342264 0.585580
22.695 63.809 -9.103 0.734814 -0.342264 0.585580
20.176 61.413 -6.891 0.813893 -0.344278 0.468028
20.805 62.154 -7.439 0.813893 -0.344278 0.468028
21.026 62.857 -7.307 0.813893 -0.344278 0.468028
20.819 61.435 -7.990 0.813893 -0.344278 0.468028
21.803 64.671 -7.326 0.813893 -0.344278 0.468028
21.256 63.875 -6.961 0.813893 -0.344278 0.468028
21.306 64.637 -6.489 0.813893 -0.344278 0.468028
20.787 63.657 -6.308 0.813893 -0.344278 0.468028
21.634 63.910 -7.590 0.813893 -0.344278 0.468028
50.012 65.626 -0.663 -0.900203 -0.430295 0.066935
49.746 66.329 0.279 -0.900203 -0.430295 0.066935
49.299 67.258 0.256 -0.900203 -0.430295 0.066935
50.243 65.311 0.409 -0.900203 -0.430295 0.066935
48.981 67.741 -0.901 -0.900203 -0.430295 0.066935
49.624 66.349 -1.225 -0.900203 -0.430295 0.066935
49.389 66.946 -0.541 -0.900203 -0.430295 0.066935
48.955 67.907 -0.195 -0.900203 -0.430295 0.066935
50.144 65.244 -1.336 -0.900203 -0.430295 0.066935
49.837 65.348 -2.489 -0.880363 -0.429122 0.202026
49.335 66.407 -2.416 -0.880363 -0.429122 0.202026
49.125 67.251 -1.525 -0.880363 -0.429122 0.202026
48.797 67.710 -1.980 -0.880363 -0.429122 0.202026
49.491 65.769 -3.100 -0.880363 -0.429122 0.202026
48.916 67.054 -2.863 -0.880363 -0.429122 0.202026
48.343 68.077 -3.181 -0.880363 -0.429122 0.202026
48.453 68.390 -2.028 -0.880363 -0.429122 0.202026
48.641 68.389 -1.207 -0.880363 -0.429122 0.202026
48.741 66.178 -4.661 -0.840176 -0.430258 0.330125
48.770 66.821 -3.747 -0.840176 -0.430258 0.330125
49.074 66.022 -4.016 -0.840176 -0.430258 0.330125
48.892 65.563 -5.080 -0.840176 -0.430258 0.330125
49.360 65.113 -4.474 -0.840176 -0.430258 0.330125
47.434 68.407 -5.078 -0.840176 -0.430258 0.330125
48.278 67.253 -4.436 -0.840176 -0.430258 0.330125
47.964 68.103 -4.125 -0.840176 -0.430258 0.330125
47.837 67.788 -4.862 -0.840176 -0.430258 0.330125
48.258 66.503 -5.468 -0.840176 -0.430258 0.330125
48.492 65.767 -5.770 -0.782021 -0.430843 0.450353
47.723 66.914 -6.006 -0.782021 -0.430843 0.450353
47.955 65.348 -7.100 -0.782021 -0.430843 0.450353
48.010 66.180 -6.210 -0.782021 -0.430843 0.450353
48.442 65.033 -6.556 -0.782021 -0.430843 0.450353
47.651 67.521 -5.551 -0.782021 -0.430843 0.450353
47.129 67.198 -6.764 -0.782021 -0.430843 0.450353
47.169 67.843 -6.079 -0.782021 -0.430843 0.450353
47.647 66.047 -6.965 -0.782021 -0.430843 0.450353
46.532 68.276 -6.769 -0.782021 -0.430843 0.450353
47.183 66.555 -7.283 -0.782021 -0.430843 0.450353
47.672 65.131 -7.786 -0.705763 -0.430100 0.562950
46.527 66.184 -8.415 -0.705763 -0.430100 0.562950
46.859 65.524 -8.503 -0.705763 -0.430100 0.562950
46.490 66.961 -7.866 -0.705763 -0.430100 0.562950
45.765 67.405 -8.435 -0.705763 -0.430100 0.562950
46.069 66.045 -9.096 -0.705763 -0.430100 0.562950
45.824 67.961 -7.936 -0.705763 -0.430100 0.562950
46.363 67.688 -7.469 -0.705763 -0.430100 0.562950
45.872 66.755 -8.799 -0.705763 -0.430100 0.562950
45.418 66.639 -9.354 -0.614274 -0.431157 0.660886
45.861 65.561 -9.645 -0.614274 -0.431157 0.660886
45.311 65.186 -10.399 -0.614274 -0.431157 0.660886
45.169 67.749 -8.863 -0.614274 -0.431157 0.660886
45.055 65.891 -10.178 -0.614274 -0.431157 0.660886
44.514 67.541 -9.606 -0.614274 -0.431157 0.660886
44.171 67.128 -10.192 -0.614274 -0.431157 0.660886
44.684 65.517 -10.766 -0.614274 -0.431157 0.660886
43.751 68.158 -9.911 -0.614274 -0.431157 0.660886
44.725 66.708 -9.952 -0.614274 -0.431157 0.660886
44.768 68.412 -8.803 -0.614274 -0.431157 0.660886
44.290 68.276 -9.335 -0.614274 -0.431157 0.660886
43.619 65.905 -11.322 -0.508811 -0.429772 0.745927
43.593 66.731 -10.862 -0.508811 -0.429772 0.745927
43.367 64.702 -12.188 -0.508811 -0.429772 0.745927
43.323 65.410 -11.810 -0.508811 -0.429772 0.745927
44.180 66.135 -10.807 -0.508811 -0.429772 0.745927
44.343 65.112 -11.286 -0.508811 -0.429772 0.745927
42.843 67.077 -11.173 -0.508811 -0.429772 0.745927
43.039 67.707 -10.676 -0.508811 -0.429772 0.745927
42.580 65.762 -12.113 -0.508811 -0.429772 0.745927
42.461 68.185 -10.794 -0.508811 -0.429772 0.745927
42.353 66.633 -11.764 -0.508811 -0.429772 0.745927
41.280 65.618 -12.824 -0.391578 -0.429937 0.813524
41.644 64.884 -13.038 -0.391578 -0.429937 0.813524
41.539 66.769 -12.090 -0.391578 -0.429937 0.813524
41.799 67.375 -11.644 -0.391578 -0.429937 0.813524
41.845 68.099 -11.238 -0.391578 -0.429937 0.813524
41.845 65.911 -12.398 -0.391578 -0.429937 0.813524
40.429 67.974 -11.987 -0.391578 -0.429937 0.813524
40.745 66.550 -12.588 -0.391578 -0.429937 0.813524
41.120 68.106 -11.583 -0.391578 -0.429937 0.813524
40.733 65.328 -13.242 -0.391578 -0.429937 0.813524
39.206 66.001 -13.403 -0.266192 -0.430470 0.862460
39.497 66.588 -13.020 -0.266192 -0.430470 0.862460
39.010 65.252 -13.837 -0.266192 -0.430470 0.862460
39.742 65.404 -13.536 -0.266192 -0.430470 0.862460
40.102 67.258 -12.499 -0.266192 -0.430470 0.862460
40.071 66.125 -13.074 -0.266192 -0.430470 0.862460
38.563 67.948 -12.629 -0.266192 -0.430470 0.862460
38.548 66.626 -13.294 -0.266192 -0.430470 0.862460
39.484 67.918 -12.360 -0.266192 -0.430470 0.862460
39.045 67.261 -12.823 -0.266192 -0.430470 0.862460
38.472 65.755 -13.752 -0.266192 -0.430470 0.862460
37.699 66.163 -13.691 -0.135169 -0.431117 0.892114
37.250 65.429 -14.113 -0.135169 -0.431117 0.892114
38.319 64.967 -14.175 -0.135169 -0.431117 0.892114
37.599 66.890 -13.355 -0.135169 -0.431117 0.892114
36.302 67.217 -13.392 -0.135169 -0.431117 0.892114
36.963 67.712 -13.054 -0.135169 -0.431117 0.892114
37.012 66.443 -13.659 -0.135169 -0.431117 0.892114
36.853 68.395 -12.741 -0.135169 -0.431117 0.892114
36.285 66.430 -13.775 -0.135169 -0.431117 0.892114
36.094 68.426 -12.840 -0.135169 -0.431117 0.892114
37.673 68.409 -12.611 -0.135169 -0.431117 0.892114
36.335 65.656 -14.141 -0.135169 -0.431117 0.892114
35.118 65.585 -14.206 0.001302 -0.430994 0.902354
35.237 66.420 -13.807 0.001302 -0.430994 0.902354
34.494 65.118 -14.429 0.001302 -0.430994 0.902354
34.091 67.662 -13.214 0.001302 -0.430994 0.902354
35.023 68.340 -12.891 0.001302 -0.430994 0.902354
34.127 65.698 -14.152 0.001302 -0.430994 0.902354
34.333 66.726 -13.662 0.001302 -0.430994 0.902354
35.594 67.759 -13.168 0.001302 -0.430994 0.902354
34.718 67.288 -13.393 0.001302 -0.430994 0.902354
32.295 65.609 -13.957 0.135169 -0.431117 0.892114
32.826 66.291 -13.708 0.135169 -0.431117 0.892114
33.358 67.249 -13.326 0.135169 -0.431117 0.892114
32.837 64.885 -14.388 0.135169 -0.431117 0.892114
33.597 66.132 -13.901 0.135169 -0.431117 0.892114
32.022 66.723 -13.379 0.135169 -0.431117 0.892114
32.414 68.360 -12.647 0.135169 -0.431117 0.892114
31.769 66.038 -13.671 0.135169 -0.431117 0.892114
32.168 67.384 -13.081 0.135169 -0.431117 0.892114
33.174 68.303 -12.789 0.135169 -0.431117 0.892114
31.260 65.186 -13.954 0.266192 -0.430470 0.862460
30.313 65.547 -13.482 0.266192 -0.430470 0.862460
31.077 67.155 -12.914 0.266192 -0.430470 0.862460
30.756 66.521 -13.132 0.266192 -0.430470 0.862460
31.481 67.761 -12.736 0.266192 -0.430470 0.862460
30.585 68.379 -12.151 0.266192 -0.430470 0.862460
30.030 66.171 -13.083 0.266192 -0.430470 0.862460
29.993 67.608 -12.354 0.266192 -0.430470 0.862460
29.473 65.126 -13.433 0.266192 -0.430470 0.862460
30.702 67.702 -12.525 0.266192 -0.430470 0.862460
29.787 66.771 -12.708 0.266192 -0.430470 0.862460
28.152 65.368 -12.683 0.391578 -0.429937 0.813524
28.892 66.756 -12.304 0.391578 -0.429937 0.813524
28.949 65.600 -12.944 0.391578 -0.429937 0.813524
28.266 66.102 -12.349 0.391578 -0.429937 0.813524
29.200 66.251 -12.720 0.391578 -0.429937 0.813524
29.217 67.411 -12.114 0.391578 -0.429937 0.813524
28.227 66.996 -11.857 0.391578 -0.429937 0.813524
29.379 68.083 -11.836 0.391578 -0.429937 0.813524
28.268 68.430 -11.117 0.391578 -0.429937 0.813524
28.656 67.976 -11.544 0.391578 -0.429937 0.813524
27.972 67.582 -11.424 0.391578 -0.429937 0.813524
27.376 65.124 -12.439 0.391578 -0.429937 0.813524
27.658 66.363 -11.918 0.391578 -0.429937 0.813524
26.958 66.531 -11.353 0.508811 -0.429772 0.745927
25.980 65.386 -11.348 0.508811 -0.429772 0.745927
26.725 65.285 -11.914 0.508811 -0.429772 0.745927
27.052 67.492 -10.863 0.508811 -0.429772 0.745927
26.344 67.686 -10.268 0.508811 -0.429772 0.745927
25.856 66.065 -10.871 0.508811 -0.429772 0.745927
27.024 68.340 -10.354 0.508811 -0.429772 0.745927
26.232 66.920 -10.634 0.508811 -0.429772 0.745927
27.555 68.166 -10.815 0.508811 -0.429772 0.745927
25.403 64.859 -11.259 0.508811 -0.429772 0.745927
24.719 65.185 -10.428 0.614274 -0.431157 0.660886
23.984 65.145 -9.772 0.614274 -0.431157 0.660886
25.112 66.688 -9.814 0.614274 -0.431157 0.660886
25.714 67.101 -10.104 0.614274 -0.431157 0.660886
24.816 66.045 -9.958 0.614274 -0.431157 0.660886
25.478 68.269 -9.124 0.614274 -0.431157 0.660886
24.736 67.681 -8.819 0.614274 -0.431157 0.660886
25.721 67.800 -9.655 0.614274 -0.431157 0.660886
24.086 65.809 -9.435 0.614274 -0.431157 0.660886
24.344 66.718 -9.082 0.614274 -0.431157 0.660886
23.445 65.147 -9.174 0.705763 -0.430100 0.562950
23.799 66.610 -8.498 0.705763 -0.430100 0.562950
23.373 65.778 -8.601 0.705763 -0.430100 0.562950
22.813 65.362 -8.217 0.705763 -0.430100 0.562950
23.999 68.448 -7.341 0.705763 -0.430100 0.562950
24.396 68.260 -7.983 0.705763 -0.430100 0.562950
23.181 66.731 -7.630 0.705763 -0.430100 0.562950
23.235 67.400 -7.186 0.705763 -0.430100 0.562950
22.723 66.049 -7.577 0.705763 -0.430100 0.562950
23.889 67.507 -7.924 0.705763 -0.430100 0.562950
22.326 66.479 -6.506 0.782021 -0.430843 0.450353
21.881 65.400 -6.766 0.782021 -0.430843 0.450353
23.431 68.130 -6.845 0.782021 -0.430843 0.450353
22.369 65.399 -7.612 0.782021 -0.430843 0.450353
22.577 67.754 -5.725 0.782021 -0.430843 0.450353
22.320 67.006 -5.992 0.782021 -0.430843 0.450353
21.420 65.593 -5.783 0.782021 -0.430843 0.450353
22.774 67.387 -6.415 0.782021 -0.430843 0.450353
23.082 68.259 -6.116 0.782021 -0.430843 0.450353
48.017 69.599 -0.029 -0.855542 -0.513885 0.063010
47.510 70.479 0.269 -0.855542 -0.513885 0.063010
48.595 68.660 0.158 -0.855542 -0.513885 0.063010
48.380 68.914 -0.683 -0.855542 -0.513885 0.063010
47.183 70.895 -0.755 -0.855542 -0.513885 0.063010
46.737 71.626 -0.849 -0.855542 -0.513885 0.063010
48.013 69.486 -0.988 -0.855542 -0.513885 0.063010
46.770 71.720 0.351 -0.855542 -0.513885 0.063010
47.617 70.155 -0.912 -0.855542 -0.513885 0.063010
47.776 69.309 -2.551 -0.836281 -0.513823 0.191365
47.372 70.257 -1.770 -0.836281 -0.513823 0.191365
47.002 70.966 -1.480 -0.836281 -0.513823 0.191365
48.067 68.711 -2.888 -0.836281 -0.513823 0.191365
47.917 69.393 -1.708 -0.836281 -0.513823 0.191365
46.294 71.761 -2.437 -0.836281 -0.513823 0.191365
47.201 70.179 -2.726 -0.836281 -0.513823 0.191365
46.394 71.961 -1.460 -0.836281 -0.513823 0.191365
46.834 70.898 -2.396 -0.836281 -0.513823 0.191365
47.333 69.429 -3.676 -0.799171 -0.513185 0.312995
46.866 70.220 -3.566 -0.799171 -0.513185 0.312995
47.273 68.982 -4.559 -0.799171 -0.513185 0.312995
47.808 68.746 -3.585 -0.799171 -0.513185 0.312995
46.578 70.912 -3.164 -0.799171 -0.513185 0.312995
45.706 72.012 -3.583 -0.799171 -0.513185 0.312995
46.677 69.840 -4.671 -0.799171 -0.513185 0.312995
46.470 70.500 -4.116 -0.799171 -0.513185 0.312995
46.082 71.228 -3.910 -0.799171 -0.513185 0.312995
46.822 68.656 -5.854 -0.741950 -0.514923 0.429377
46.012 70.667 -4.847 -0.741950 -0.514923 0.429377
46.222 69.901 -5.400 -0.741950 -0.514923 0.429377
45.592 71.654 -4.390 -0.741950 -0.514923 0.429377
46.296 69.342 -5.943 -0.741950 -0.514923 0.429377
45.565 70.718 -5.559 -0.741950 -0.514923 0.429377
45.800 69.822 -6.226 -0.741950 -0.514923 0.429377
44.895 71.971 -5.218 -0.741950 -0.514923 0.429377
45.021 71.220 -5.900 -0.741950 -0.514923 0.429377
44.819 70.661 -6.696 -0.669468 -0.515104 0.535239
45.527 68.933 -7.471 -0.669468 -0.515104 0.535239
45.914 69.083 -6.841 -0.669468 -0.515104 0.535239
45.349 68.474 -8.134 -0.669468 -0.515104 0.535239
45.022 69.688 -7.377 -0.669468 -0.515104 0.535239
45.267 70.076 -6.696 -0.669468 -0.515104 0.535239
44.362 70.226 -7.688 -0.669468 -0.515104 0.535239
44.795 69.301 -8.034 -0.669468 -0.515104 0.535239
44.273 71.713 -6.370 -0.669468 -0.515104 0.535239
43.791 71.759 -6.930 -0.669468 -0.515104 0.535239
44.066 71.005 -7.310 -0.669468 -0.515104 0.535239
44.100 69.663 -8.406 -0.584401 -0.513667 0.628189
43.683 68.792 -9.505 -0.584401 -0.513667 0.628189
43.573 70.713 -8.036 -0.584401 -0.513667 0.628189
42.939 71.790 -7.744 -0.584401 -0.513667 0.628189
42.697 70.982 -8.629 -0.584401 -0.513667 0.628189
43.066 70.332 -8.818 -0.584401 -0.513667 0.628189
43.230 69.669 -9.208 -0.584401 -0.513667 0.628189
42.391 71.664 -8.356 -0.584401 -0.513667 0.628189
42.536 70.194 -9.324 -0.484471 -0.514438 0.707560
42.939 68.469 -10.301 -0.484471 -0.514438 0.707560
41.963 68.874 -10.673 -0.484471 -0.514438 0.707560
42.372 69.222 -10.142 -0.484471 -0.514438 0.707560
43.047 69.057 -9.801 -0.484471 -0.514438 0.707560
41.342 70.476 -9.934 -0.484471 -0.514438 0.707560
41.199 71.867 -9.022 -0.484471 -0.514438 0.707560
41.850 70.738 -9.398 -0.484471 -0.514438 0.707560
41.925 71.332 -8.915 -0.484471 -0.514438 0.707560
41.732 69.577 -10.320 -0.484471 -0.514438 0.707560
41.257 71.238 -9.439 -0.484471 -0.514438 0.707560
41.182 68.759 -11.166 -0.371263 -0.513932 0.773329
40.510 70.039 -10.638 -0.371263 -0.513932 0.773329
40.482 68.880 -11.423 -0.371263 -0.513932 0.773329
41.136 69.402 -10.760 -0.371263 -0.513932 0.773329
40.166 71.504 -9.829 -0.371263 -0.513932 0.773329
40.386 70.830 -10.172 -0.371263 -0.513932 0.773329
39.842 70.479 -10.667 -0.371263 -0.513932 0.773329
39.587 71.179 -10.324 -0.371263 -0.513932 0.773329
39.831 69.478 -11.338 -0.371263 -0.513932 0.773329
39.549 71.950 -9.829 -0.371263 -0.513932 0.773329
39.226 69.254 -11.670 -0.252730 -0.513212 0.820208
39.004 70.388 -11.027 -0.252730 -0.513212 0.820208
39.950 68.604 -11.854 -0.252730 -0.513212 0.820208
38.298 68.739 -12.279 -0.252730 -0.513212 0.820208
39.085 68.599 -12.124 -0.252730 -0.513212 0.820208
38.418 69.510 -11.758 -0.252730 -0.513212 0.820208
37.935 70.631 -11.204 -0.252730 -0.513212 0.820208
37.911 71.295 -10.795 -0.252730 -0.513212 0.820208
38.636 71.186 -10.640 -0.252730 -0.513212 0.820208
37.863 70.011 -11.615 -0.252730 -0.513212 0.820208
38.157 71.970 -10.295 -0.252730 -0.513212 0.820208
36.846 69.148 -12.292 -0.126624 -0.513775 0.848529
37.113 70.000 -11.735 -0.126624 -0.513775 0.848529
37.629 69.074 -12.219 -0.126624 -0.513775 0.848529
37.219 70.764 -11.256 -0.126624 -0.513775 0.848529
36.697 71.901 -10.646 -0.126624 -0.513775 0.848529
36.264 69.975 -11.879 -0.126624 -0.513775 0.848529
36.143 70.884 -11.346 -0.126624 -0.513775 0.848529
36.004 69.270 -12.346 -0.126624 -0.513775 0.848529
35.961 71.503 -10.998 -0.126624 -0.513775 0.848529
35.202 70.512 -11.602 0.001339 -0.512919 0.858436
35.152 69.670 -12.107 0.001339 -0.512919 0.858436
34.507 69.249 -12.360 0.001339 -0.512919 0.858436
35.204 69.000 -12.509 0.001339 -0.512919 0.858436
34.028 68.479 -12.821 0.001339 -0.512919 0.858436
34.187 71.543 -10.984 0.001339 -0.512919 0.858436
34.634 70.928 -11.353 0.001339 -0.512919 0.858436
35.150 72.023 -10.697 0.001339 -0.512919 0.858436
34.044 69.763 -12.051 0.001339 -0.512919 0.858436
33.160 69.767 -11.918 0.126624 -0.513775 0.848529
33.015 69.006 -12.357 0.126624 -0.513775 0.848529
33.775 70.616 -11.496 0.126624 -0.513775 0.848529
33.521 71.189 -11.110 0.126624 -0.513775 0.848529
32.618 70.834 -11.189 0.126624 -0.513775 0.848529
32.746 71.604 -10.742 0.126624 -0.513775 0.848529
33.503 72.002 -10.615 0.126624 -0.513775 0.848529
32.267 69.585 -11.894 0.126624 -0.513775 0.848529
30.592 69.264 -11.607 0.252730 -0.513212 0.820208
31.535 68.519 -12.365 0.252730 -0.513212 0.820208
31.573 69.266 -11.908 0.252730 -0.513212 0.820208
31.974 70.188 -11.453 0.252730 -0.513212 0.820208
31.796 70.973 -10.906 0.252730 -0.513212 0.820208
31.274 70.157 -11.257 0.252730 -0.513212 0.820208
30.950 71.402 -10.376 0.252730 -0.513212 0.820208
30.607 70.427 -10.882 0.252730 -0.513212 0.820208
31.983 71.755 -10.473 0.252730 -0.513212 0.820208
29.608 68.807 -11.514 0.371263 -0.513932 0.773329
29.262 69.708 -10.749 0.371263 -0.513932 0.773329
29.992 69.482 -11.251 0.371263 -0.513932 0.773329
29.976 70.616 -10.488 0.371263 -0.513932 0.773329
28.991 69.006 -11.085 0.371263 -0.513932 0.773329
29.502 71.863 -9.431 0.371263 -0.513932 0.773329
29.285 70.379 -10.313 0.371263 -0.513932 0.773329
29.010 71.239 -9.608 0.371263 -0.513932 0.773329
29.758 71.285 -9.938 0.371263 -0.513932 0.773329
28.491 69.355 -10.612 0.371263 -0.513932 0.773329
30.205 71.848 -9.778 0.371263 -0.513932 0.773329
27.333 69.633 -9.643 0.484471 -0.514438 0.707560
28.045 70.074 -9.808 0.484471 -0.514438 0.707560
27.574 68.997 -10.268 0.484471 -0.514438 0.707560
28.502 70.673 -9.684 0.484471 -0.514438 0.707560
28.261 71.578 -8.863 0.484471 -0.514438 0.707560
27.782 70.600 -9.246 0.484471 -0.514438 0.707560
26.612 68.879 -9.698 0.484471 -0.514438 0.707560
27.450 71.074 -8.676 0.484471 -0.514438 0.707560
27.074 70.214 -9.044 0.484471 -0.514438 0.707560
27.703 71.788 -8.331 0.484471 -0.514438 0.707560
25.740 68.906 -8.877 0.584401 -0.513667 0.628189
26.828 70.706 -8.414 0.584401 -0.513667 0.628189
25.951 69.620 -8.488 0.584401 -0.513667 0.628189
25.084 68.593 -8.524 0.584401 -0.513667 0.628189
26.589 71.202 -7.786 0.584401 -0.513667 0.628189
25.722 70.077 -7.902 0.584401 -0.513667 0.628189
27.181 71.987 -7.695 0.584401 -0.513667 0.628189
25.379 69.229 -8.278 0.584401 -0.513667 0.628189
25.520 70.683 -7.101 0.669468 -0.515104 0.535239
26.255 71.696 -7.048 0.669468 -0.515104 0.535239
24.655 68.890 -7.740 0.669468 -0.515104 0.535239
24.810 69.631 -7.222 0.669468 -0.515104 0.535239
24.129 69.252 -6.732 0.669468 -0.515104 0.535239
24.455 70.011 -6.411 0.669468 -0.515104 0.535239
25.283 71.794 -5.735 0.669468 -0.515104 0.535239
25.780 71.659 -6.488 0.669468 -0.515104 0.535239
24.920 70.693 -6.339 0.669468 -0.515104 0.535239
24.621 70.911 -5.649 0.741950 -0.514923 0.429377
23.293 69.082 -5.541 0.741950 -0.514923 0.429377
24.150 70.331 -5.530 0.741950 -0.514923 0.429377
23.551 68.776 -6.356 0.741950 -0.514923 0.429377
23.933 69.610 -6.017 0.741950 -0.514923 0.429377
24.832 71.924 -4.801 0.741950 -0.514923 0.429377
24.374 71.249 -4.816 0.741950 -0.514923 0.429377
45.953 72.824 -0.267 -0.803086 -0.592720 0.061120
45.176 73.924 0.204 -0.803086 -0.592720 0.061120
46.301 72.403 0.233 -0.803086 -0.592720 0.061120
44.515 74.757 -0.405 -0.803086 -0.592720 0.061120
44.039 75.411 -0.310 -0.803086 -0.592720 0.061120
45.224 73.774 -0.638 -0.803086 -0.592720 0.061120
44.326 75.081 0.272 -0.803086 -0.592720 0.061120
46.347 72.242 -0.744 -0.803086 -0.592720 0.061120
45.706 72.965 -1.203 -0.786318 -0.591640 0.177948
45.818 72.595 -1.938 -0.786318 -0.591640 0.177948
45.158 73.612 -1.462 -0.786318 -0.591640 0.177948
44.107 74.937 -1.686 -0.786318 -0.591640 0.177948
44.500 74.323 -1.995 -0.786318 -0.591640 0.177948
45.304 73.203 -2.176 -0.786318 -0.591640 0.177948
44.786 73.735 -2.465 -0.749248 -0.592689 0.295546
45.114 73.021 -3.067 -0.749248 -0.592689 0.295546
45.594 72.542 -2.811 -0.749248 -0.592689 0.295546
43.774 74.711 -3.075 -0.749248 -0.592689 0.295546
44.288 74.216 -2.765 -0.749248 -0.592689 0.295546
43.564 75.331 -2.362 -0.749248 -0.592689 0.295546
44.309 73.798 -3.553 -0.749248 -0.592689 0.295546
45.174 72.554 -3.858 -0.749248 -0.592689 0.295546
44.192 73.163 -4.699 -0.696681 -0.594082 0.402122
43.716 74.370 -3.744 -0.696681 -0.594082 0.402122
43.981 73.750 -4.201 -0.696681 -0.594082 0.402122
44.607 73.111 -4.056 -0.696681 -0.594082 0.402122
43.249 74.300 -4.658 -0.696681 -0.594082 0.402122
42.885 75.153 -4.031 -0.696681 -0.594082 0.402122
43.264 75.127 -3.413 -0.696681 -0.594082 0.402122
43.767 72.659 -5.959 -0.627677 -0.594021 0.503151
44.334 72.256 -5.725 -0.627677 -0.594021 0.503151
43.189 73.196 -6.050 -0.627677 -0.594021 0.503151
43.442 73.539 -5.327 -0.627677 -0.594021 0.503151
42.605 74.098 -5.717 -0.627677 -0.594021 0.503151
42.650 74.553 -5.122 -0.627677 -0.594021 0.503151
42.382 75.332 -4.540 -0.627677 -0.594021 0.503151
43.348 72.455 -6.726 -0.627677 -0.594021 0.503151
41.923 75.289 -5.165 -0.627677 -0.594021 0.503151
42.313 73.389 -6.766 -0.546492 -0.593866 0.590482
42.313 72.441 -7.719 -0.546492 -0.593866 0.590482
41.937 73.994 -6.507 -0.546492 -0.593866 0.590482
41.795 74.867 -5.762 -0.546492 -0.593866 0.590482
41.170 75.089 -6.118 -0.546492 -0.593866 0.590482
41.170 74.500 -6.711 -0.546492 -0.593866 0.590482
41.798 73.054 -7.581 -0.546492 -0.593866 0.590482
41.766 72.311 -8.269 -0.453513 -0.594085 0.664371
41.004 72.835 -8.322 -0.453513 -0.594085 0.664371
41.203 73.540 -7.558 -0.453513 -0.594085 0.664371
39.791 74.811 -7.388 -0.453513 -0.594085 0.664371
40.191 73.868 -7.955 -0.453513 -0.594085 0.664371
40.246 75.094 -6.825 -0.453513 -0.594085 0.664371
40.432 74.404 -7.313 -0.453513 -0.594085 0.664371
40.346 72.052 -9.377 -0.349941 -0.594085 0.724296
39.966 73.217 -8.607 -0.349941 -0.594085 0.724296
39.356 72.751 -9.281 -0.349941 -0.594085 0.724296
40.494 72.576 -8.877 -0.349941 -0.594085 0.724296
39.473 74.368 -7.904 -0.349941 -0.594085 0.724296
39.426 73.708 -8.466 -0.349941 -0.594085 0.724296
38.612 75.323 -7.537 -0.349941 -0.594085 0.724296
38.722 74.684 -8.007 -0.349941 -0.594085 0.724296
39.289 75.376 -7.168 -0.349941 -0.594085 0.724296
38.127 73.773 -8.925 -0.235969 -0.592266 0.770415
38.641 72.785 -9.529 -0.235969 -0.592266 0.770415
37.986 73.180 -9.426 -0.235969 -0.592266 0.770415
37.177 74.572 -8.603 -0.235969 -0.592266 0.770415
37.435 75.396 -7.888 -0.235969 -0.592266 0.770415
37.965 74.812 -8.175 -0.235969 -0.592266 0.770415
37.559 72.403 -10.157 -0.235969 -0.592266 0.770415
37.417 73.939 -9.017 -0.235969 -0.592266 0.770415
36.501 72.712 -10.091 -0.119214 -0.593128 0.796233
36.685 73.435 -9.525 -0.119214 -0.593128 0.796233
35.985 72.225 -10.532 -0.119214 -0.593128 0.796233
36.497 74.999 -8.388 -0.119214 -0.593128 0.796233
36.526 74.204 -8.976 -0.119214 -0.593128 0.796233
35.704 75.322 -8.267 -0.119214 -0.593128 0.796233
35.807 73.651 -9.496 -0.119214 -0.593128 0.796233
35.774 74.389 -8.951 -0.119214 -0.593128 0.796233
35.460 72.913 -10.044 0.001366 -0.594083 0.804402
34.665 72.573 -10.294 0.001366 -0.594083 0.804402
34.670 74.077 -9.187 0.001366 -0.594083 0.804402
35.002 74.608 -8.796 0.001366 -0.594083 0.804402
34.435 73.168 -9.856 0.001366 -0.594083 0.804402
34.552 75.159 -8.390 0.001366 -0.594083 0.804402
33.816 74.379 -8.897 0.119214 -0.593128 0.796233
33.791 72.672 -10.165 0.119214 -0.593128 0.796233
33.278 73.242 -9.663 0.119214 -0.593128 0.796233
32.965 72.382 -10.257 0.119214 -0.593128 0.796233
33.772 73.765 -9.348 0.119214 -0.593128 0.796233
33.465 74.970 -8.404 0.119214 -0.593128 0.796233
32.935 74.450 -8.712 0.119214 -0.593128 0.796233
32.797 73.684 -9.261 0.119214 -0.593128 0.796233
32.005 73.852 -8.905 0.235969 -0.592266 0.770415
31.381 72.496 -9.758 0.235969 -0.592266 0.770415
32.483 72.941 -9.755 0.235969 -0.592266 0.770415
31.924 73.263 -9.334 0.235969 -0.592266 0.770415
31.317 73.478 -8.982 0.235969 -0.592266 0.770415
31.837 74.978 -7.985 0.235969 -0.592266 0.770415
32.686 75.230 -8.053 0.235969 -0.592266 0.770415
32.193 74.519 -8.449 0.235969 -0.592266 0.770415
31.296 74.226 -8.390 0.349941 -0.594085 0.724296
30.316 72.441 -9.377 0.349941 -0.594085 0.724296
30.565 73.717 -8.454 0.349941 -0.594085 0.724296
30.626 73.050 -9.028 0.349941 -0.594085 0.724296
29.540 72.494 -8.960 0.349941 -0.594085 0.724296
30.483 74.964 -7.395 0.349941 -0.594085 0.724296
30.105 74.022 -7.984 0.349941 -0.594085 0.724296
31.123 75.370 -7.372 0.349941 -0.594085 0.724296
29.831 73.094 -8.610 0.349941 -0.594085 0.724296
28.527 72.242 -8.531 0.453513 -0.594085 0.664371
28.865 73.115 -7.983 0.453513 -0.594085 0.664371
29.409 73.661 -7.867 0.453513 -0.594085 0.664371
29.659 74.395 -7.383 0.453513 -0.594085 0.664371
28.597 73.556 -7.407 0.453513 -0.594085 0.664371
29.402 75.411 -6.302 0.453513 -0.594085 0.664371
28.919 74.196 -7.056 0.453513 -0.594085 0.664371
28.125 72.782 -7.775 0.453513 -0.594085 0.664371
29.127 74.807 -6.653 0.453513 -0.594085 0.664371
29.962 75.189 -6.882 0.453513 -0.594085 0.664371
27.640 73.278 -6.834 0.546492 -0.593866 0.590482
27.098 72.735 -6.876 0.546492 -0.593866 0.590482
28.635 75.173 -5.852 0.546492 -0.593866 0.590482
27.932 74.342 -6.036 0.546492 -0.593866 0.590482
25.885 72.329 -5.912 0.627677 -0.594021 0.503151
26.648 73.355 -5.658 0.627677 -0.594021 0.503151
26.509 72.406 -6.604 0.627677 -0.594021 0.503151
27.178 73.503 -6.147 0.627677 -0.594021 0.503151
27.826 74.787 -5.443 0.627677 -0.594021 0.503151
27.235 74.105 -5.509 0.627677 -0.594021 0.503151
27.587 75.305 -4.532 0.627677 -0.594021 0.503151
28.083 75.384 -5.061 0.627677 -0.594021 0.503151
26.779 74.289 -4.719 0.627677 -0.594021 0.503151
26.035 73.657 -4.365 0.696681 -0.594082 0.402122
25.477 72.642 -4.892 0.696681 -0.594082 0.402122
26.018 73.147 -5.087 0.696681 -0.594082 0.402122
24.976 72.504 -4.229 0.696681 -0.594082 0.402122
27.038 75.298 -3.684 0.696681 -0.594082 0.402122
26.465 74.552 -3.791 0.696681 -0.594082 0.402122
25.510 73.287 -4.000 0.696681 -0.594082 0.402122
42.936 76.687 0.223 -0.743627 -0.666255 0.055879
42.008 77.760 0.688 -0.743627 -0.666255 0.055879
43.411 76.141 0.036 -0.743627 -0.666255 0.055879
44.074 75.473 0.885 -0.743627 -0.666255 0.055879
41.831 77.897 -0.036 -0.743627 -0.666255 0.055879
42.377 77.306 0.177 -0.743627 -0.666255 0.055879
41.266 78.530 -0.010 -0.743627 -0.666255 0.055879
43.659 75.533 -1.589 -0.727098 -0.666125 0.166150
42.893 76.572 -0.770 -0.727098 -0.666125 0.166150
43.488 75.916 -0.801 -0.727098 -0.666125 0.166150
42.284 77.255 -0.691 -0.727098 -0.666125 0.166150
41.601 77.900 -1.094 -0.727098 -0.666125 0.166150
43.052 76.216 -1.505 -0.727098 -0.666125 0.166150
42.410 76.738 -1.892 -0.692989 -0.667500 0.272416
42.935 75.889 -2.634 -0.692989 -0.667500 0.272416
41.908 77.330 -1.723 -0.692989 -0.667500 0.272416
41.049 78.160 -1.883 -0.692989 -0.667500 0.272416
41.496 77.417 -2.471 -0.646085 -0.665813 0.373184
41.982 76.812 -2.712 -0.646085 -0.665813 0.373184
42.476 75.952 -3.393 -0.646085 -0.665813 0.373184
40.442 78.261 -2.788 -0.646085 -0.665813 0.373184
41.797 76.596 -3.418 -0.646085 -0.665813 0.373184
40.991 77.538 -3.130 -0.646085 -0.665813 0.373184
41.946 75.884 -4.315 -0.583508 -0.667106 0.463128
41.411 76.505 -4.096 -0.583508 -0.667106 0.463128
40.715 76.918 -4.376 -0.583508 -0.667106 0.463128
40.127 77.809 -3.835 -0.583508 -0.667106 0.463128
39.863 78.462 -3.231 -0.583508 -0.667106 0.463128
41.029 75.857 -5.382 -0.506018 -0.667406 0.546365
40.890 76.378 -4.875 -0.506018 -0.667406 0.546365
39.715 77.309 -4.831 -0.506018 -0.667406 0.546365
39.298 77.956 -4.428 -0.506018 -0.667406 0.546365
40.022 76.644 -5.357 -0.506018 -0.667406 0.546365
40.398 75.986 -5.810 -0.506018 -0.667406 0.546365
39.371 76.566 -5.890 -0.420239 -0.666070 0.616239
39.497 75.842 -6.587 -0.420239 -0.666070 0.616239
38.631 78.202 -4.624 -0.420239 -0.666070 0.616239
38.957 77.641 -5.008 -0.420239 -0.666070 0.616239
38.400 75.961 -7.022 -0.323207 -0.667529 0.670777
