# .PCD v0.7 - Point Cloud Data file format
VERSION 0.7
FIELDS x y z
SIZE 4 4 4
TYPE F F F
COUNT 1 1 1
WIDTH 1556
HEIGHT 1
VIEWPOINT 0 0 0 1 0 0 0
POINTS 1556
DATA ascii
-129.80774 284.53354 0.23648834
-129.80774 284.93402 0.51880479
-119.42313 284.93402 0.51880479
-119.42313 285.25385 0.89002663
-109.03851 285.25385 0.89002663
-98.653885 285.25385 0.89002663
-88.269264 285.25385 0.89002663
-98.653885 284.93402 0.51880479
-88.269264 284.93402 0.51880479
-98.653885 284.53354 0.23648834
-88.269264 284.53354 0.23648834
-98.653885 284.07642 0.060022768
-88.269264 284.07642 0.060022768
-77.884644 284.07642 0.060022768
-67.500023 284.07642 0.060022768
-67.500023 284.53354 0.23648834
-57.115406 284.53354 0.23648834
-57.115406 284.93402 0.51880479
-46.730785 284.93402 0.51880479
-46.730785 285.25385 0.89002663
-36.346169 285.25385 0.89002663
-25.961548 285.25385 0.89002663
-15.576929 285.25385 0.89002663
-25.961548 284.93402 0.51880479
-15.576929 284.93402 0.51880479
-25.961548 284.53354 0.23648834
-15.576929 284.53354 0.23648834
-25.961548 284.07642 0.060022768
-15.576929 284.07642 0.060022768
-5.1923099 284.07642 0.060022768
5.1923099 284.07642 0.060022768
5.1923099 284.53354 0.23648834
15.576929 284.53354 0.23648834
15.576929 284.93402 0.51880479
25.961548 284.93402 0.51880479
25.961548 285.25385 0.89002663
36.346169 285.25385 0.89002663
171.34622 285.47382 1.3278722
46.730785 285.25385 0.89002663
57.115406 285.25385 0.89002663
46.730785 284.93402 0.51880479
57.115406 284.93402 0.51880479
46.730785 284.53354 0.23648834
57.115406 284.53354 0.23648834
46.730785 284.07642 0.060022768
57.115406 284.07642 0.060022768
171.34622 283.59012 0
67.500023 284.07642 0.060022768
77.884644 284.07642 0.060022768
77.884644 284.53354 0.23648834
88.269264 284.53354 0.23648834
88.269264 284.93402 0.51880479
98.653885 284.93402 0.51880479
98.653885 285.25385 0.89002663
109.03851 285.25385 0.89002663
119.42313 285.25385 0.89002663
129.80774 285.25385 0.89002663
119.42313 284.93402 0.51880479
129.80774 284.93402 0.51880479
119.42313 284.53354 0.23648834
129.80774 284.53354 0.23648834
119.42313 284.07642 0.060022768
129.80774 284.07642 0.060022768
140.19237 284.07642 0.060022768
150.57698 284.07642 0.060022768
150.57698 284.53354 0.23648834
160.96159 284.53354 0.23648834
160.96159 284.93402 0.51880479
171.34622 284.93402 0.51880479
171.34622 285.25385 0.89002663
160.96159 285.25385 0.89002663
150.57698 285.25385 0.89002663
140.19237 285.25385 0.89002663
140.19237 284.93402 0.51880479
-160.96159 284.53354 0.23648834
-160.96159 284.93402 0.51880479
-160.96159 285.25385 0.89002663
-5.1923099 285.25385 0.89002663
5.1923099 285.25385 0.89002663
15.576929 285.25385 0.89002663
5.1923099 284.93402 0.51880479
171.34622 284.53354 0.23648834
160.96159 284.07642 0.060022768
171.34622 284.07642 0.060022768
15.576929 284.07642 0.060022768
25.961548 284.07642 0.060022768
25.961548 284.53354 0.23648834
36.346169 284.53354 0.23648834
36.346169 284.93402 0.51880479
-150.57698 284.53354 0.23648834
-150.57698 284.93402 0.51880479
-150.57698 285.25385 0.89002663
-129.80774 284.07642 0.060022768
-119.42313 284.07642 0.060022768
-109.03851 284.07642 0.060022768
-109.03851 284.53354 0.23648834
-119.42313 284.53354 0.23648834
-77.884644 284.53354 0.23648834
-77.884644 284.93402 0.51880479
-77.884644 285.25385 0.89002663
-57.115406 284.07642 0.060022768
-46.730785 284.07642 0.060022768
-36.346169 284.07642 0.060022768
-36.346169 284.53354 0.23648834
-46.730785 284.53354 0.23648834
-5.1923099 284.53354 0.23648834
-5.1923099 284.93402 0.51880479
36.346169 284.07642 0.060022768
67.500023 284.53354 0.23648834
67.500023 284.93402 0.51880479
67.500023 285.25385 0.89002663
88.269264 284.07642 0.060022768
98.653885 284.07642 0.060022768
109.03851 284.07642 0.060022768
109.03851 284.53354 0.23648834
98.653885 284.53354 0.23648834
140.19237 284.53354 0.23648834
-140.19237 284.93402 0.51880479
-129.80774 285.25385 0.89002663
-109.03851 284.93402 0.51880479
-67.500023 284.93402 0.51880479
-57.115406 285.25385 0.89002663
-36.346169 284.93402 0.51880479
77.884644 284.93402 0.51880479
88.269264 285.25385 0.89002663
109.03851 284.93402 0.51880479
150.57698 284.93402 0.51880479
-140.19237 285.25385 0.89002663
-67.500023 285.25385 0.89002663
77.884644 285.25385 0.89002663
181.57692 295.7045 30
192.51924 -278.39166 30
195.7045 -281.5769 30
192.51924 278.39166 30
195.7045 281.5769 30
192.25562 281.22919 30
195.44087 284.41446 30
191.47346 283.91324 30
194.65872 287.09851 30
193.38394 289.54019 30
192.25562 -281.22919 30
195.44087 -284.41446 30
191.47346 -283.91324 30
194.65872 -287.09851 30
193.38394 -289.54019 30
190.19868 -286.35495 30
191.65872 -291.65872 30
188.47346 -288.47348 30
189.54021 -293.38394 30
186.35495 -290.19867 30
187.0985 -294.65872 30
183.91324 -291.47345 30
184.41444 -295.44089 30
181.57692 -295.7045 30
181.22919 -292.25562 30
178.39166 -292.51926 30
-178.39166 -292.51926 30
-181.57692 -295.7045 30
-181.22919 -292.25562 30
-183.91324 -291.47345 30
-186.35495 -290.19867 30
-187.0985 -294.65872 30
-184.41444 -295.44089 30
-189.54021 -293.38394 30
-188.47346 -288.47348 30
-191.65872 -291.65872 30
-190.19868 -286.35495 30
-193.38394 -289.54019 30
-191.47346 -283.91324 30
-194.65872 -287.09851 30
-195.44087 -284.41446 30
-192.25562 -281.22919 30
-195.7045 -281.5769 30
-192.51924 -278.39166 30
-192.51924 278.39166 30
-192.25562 281.22919 30
-191.47346 283.91324 30
-190.19868 286.35495 30
-188.47346 288.47348 30
-186.35495 290.19867 30
-183.91324 291.47345 30
-181.22919 292.25562 30
-178.39166 292.51926 30
178.39166 292.51926 30
181.22919 292.25562 30
183.91324 291.47345 30
186.35495 290.19867 30
187.0985 294.65872 30
184.41444 295.44089 30
189.54021 293.38394 30
188.47346 288.47348 30
191.65872 291.65872 30
190.19868 286.35495 30
173.80542 283.36166 0
173.86823 283.69333 0.028737953
173.94302 284.08817 0.14176191
174.01181 284.45142 0.33574992
174.04822 284.64362 0.48428786
174.10667 284.95224 0.82567692
174.53964 285.0907 1.2183418
176.71983 284.15002 0.77512932
177.52776 284.04642 1.1425821
179.1026 282.87839 0.74425268
180.18146 282.38608 1.1038657
181.1783 281.17834 0.73384273
182.38609 280.18146 1.1038657
182.8777 279.10205 0.74428004
184.0464 277.52777 1.1425821
184.15065 276.72015 0.77510816
185.09068 274.53964 1.2183418
184.95203 274.1066 0.82568371
185.4738 271.34622 1.3278722
185.25385 271.34622 0.89002663
184.93402 271.34622 0.51880479
184.64339 274.04816 0.48429134
183.86047 276.60373 0.45364326
182.61766 278.931 0.43502578
180.95854 280.95856 0.4287436
178.9315 282.61835 0.43501303
178.82718 282.45975 0.30115891
176.53191 283.68155 0.31423184
176.39774 283.34714 0.1325261
184.4512 274.01175 0.33575216
184.53354 271.34622 0.23648834
184.08797 273.94296 0.14176276
184.07643 271.34622 0.060022768
183.6931 273.86819 0.028738113
183.59013 271.34622 0
183.36165 273.80542 0
182.9863 276.25299 0.026846115
182.68379 276.13159 0
181.84421 278.42221 0.025701551
181.57898 278.24774 0
180.3078 280.3078 0.0253169
180.08379 280.0838 0
178.24774 281.57898 0
178.42267 281.84488 0.025701052
176.13159 282.68378 0
176.25273 282.98572 0.026846526
176.60344 283.85986 0.45365337
178.63243 282.16373 0.12692596
180.82489 280.82492 0.29676622
182.45909 278.82669 0.3011668
183.68214 276.5322 0.31422549
180.57579 280.57581 0.12504648
182.16306 278.63196 0.12692876
183.34775 276.39801 0.1325238
184.07643 260.90982 0.060022768
184.07643 250.47343 0.060022768
184.07643 240.03703 0.060022768
184.53354 240.03703 0.23648834
184.53354 229.60065 0.23648834
184.93402 229.60065 0.51880479
184.93402 219.16426 0.51880479
185.25385 219.16426 0.89002663
185.25385 208.72786 0.89002663
185.25385 198.29147 0.89002663
185.25385 187.85507 0.89002663
184.93402 198.29147 0.51880479
184.93402 187.85507 0.51880479
184.53354 198.29147 0.23648834
184.53354 187.85507 0.23648834
184.07643 198.29147 0.060022768
184.07643 187.85507 0.060022768
184.07643 177.41869 0.060022768
184.07643 166.98228 0.060022768
184.53354 166.98228 0.23648834
184.53354 156.5459 0.23648834
184.93402 156.5459 0.51880479
184.93402 146.1095 0.51880479
185.25385 146.1095 0.89002663
185.25385 135.67311 0.89002663
185.25385 125.23672 0.89002663
185.25385 114.80032 0.89002663
184.93402 125.23672 0.51880479
184.93402 114.80032 0.51880479
184.53354 125.23672 0.23648834
184.53354 114.80032 0.23648834
184.07643 125.23672 0.060022768
184.07643 114.80032 0.060022768
184.07643 104.36393 0.060022768
184.07643 93.927536 0.060022768
184.53354 93.927536 0.23648834
184.53354 83.491142 0.23648834
184.93402 83.491142 0.51880479
184.93402 73.054749 0.51880479
185.25385 73.054749 0.89002663
185.25385 62.618359 0.89002663
185.25385 52.181965 0.89002663
185.25385 41.745571 0.89002663
184.93402 52.181965 0.51880479
184.93402 41.745571 0.51880479
184.53354 52.181965 0.23648834
184.53354 41.745571 0.23648834
184.07643 52.181965 0.060022768
184.07643 41.745571 0.060022768
184.07643 31.309179 0.060022768
184.07643 20.872786 0.060022768
184.53354 20.872786 0.23648834
184.53354 10.436393 0.23648834
184.93402 10.436393 0.51880479
184.93402 8.8817842e-15 0.51880479
185.25385 8.8817842e-15 0.89002663
185.25385 -10.436393 0.89002663
185.4738 -271.34622 1.3278722
185.25385 -20.872786 0.89002663
185.25385 -31.309179 0.89002663
184.93402 -20.872786 0.51880479
184.93402 -31.309179 0.51880479
184.53354 -20.872786 0.23648834
184.53354 -31.309179 0.23648834
184.07643 -20.872786 0.060022768
184.07643 -31.309179 0.060022768
183.59013 -271.34622 0
184.07643 -41.745571 0.060022768
184.07643 -52.181965 0.060022768
184.53354 -52.181965 0.23648834
184.53354 -62.618359 0.23648834
184.93402 -62.618359 0.51880479
184.93402 -73.054749 0.51880479
185.25385 -73.054749 0.89002663
185.25385 -83.491142 0.89002663
185.25385 -93.927536 0.89002663
185.25385 -104.36393 0.89002663
184.93402 -93.927536 0.51880479
184.93402 -104.36393 0.51880479
184.53354 -93.927536 0.23648834
184.53354 -104.36393 0.23648834
184.07643 -93.927536 0.060022768
184.07643 -104.36393 0.060022768
184.07643 -114.80032 0.060022768
184.07643 -125.23672 0.060022768
184.53354 -125.23672 0.23648834
184.53354 -135.67311 0.23648834
184.93402 -135.67311 0.51880479
184.93402 -146.1095 0.51880479
185.25385 -146.1095 0.89002663
185.25385 -156.5459 0.89002663
185.25385 -166.98228 0.89002663
185.25385 -177.41869 0.89002663
184.93402 -166.98228 0.51880479
184.93402 -177.41869 0.51880479
184.53354 -166.98228 0.23648834
184.53354 -177.41869 0.23648834
184.07643 -166.98228 0.060022768
184.07643 -177.41869 0.060022768
184.07643 -187.85507 0.060022768
184.07643 -198.29147 0.060022768
184.53354 -198.29147 0.23648834
184.53354 -208.72786 0.23648834
184.93402 -208.72786 0.51880479
184.93402 -219.16426 0.51880479
185.25385 -219.16426 0.89002663
185.25385 -229.60065 0.89002663
185.25385 -240.03703 0.89002663
185.25385 -250.47343 0.89002663
184.93402 -240.03703 0.51880479
184.93402 -250.47343 0.51880479
184.53354 -240.03703 0.23648834
184.53354 -250.47343 0.23648834
184.07643 -240.03703 0.060022768
184.07643 -250.47343 0.060022768
184.07643 -260.90982 0.060022768
184.07643 -271.34622 0.060022768
184.53354 -271.34622 0.23648834
184.53354 -260.90982 0.23648834
184.93402 -271.34622 0.51880479
184.93402 -260.90982 0.51880479
185.25385 -271.34622 0.89002663
185.25385 -260.90982 0.89002663
184.53354 260.90982 0.23648834
184.93402 260.90982 0.51880479
185.25385 260.90982 0.89002663
185.25385 10.436393 0.89002663
185.25385 20.872786 0.89002663
184.93402 20.872786 0.51880479
184.93402 31.309179 0.51880479
184.53354 31.309179 0.23648834
184.07643 8.8817842e-15 0.060022768
184.07643 -10.436393 0.060022768
184.53354 250.47343 0.23648834
184.93402 250.47343 0.51880479
185.25385 250.47343 0.89002663
184.07643 229.60065 0.060022768
184.07643 219.16426 0.060022768
184.07643 208.72786 0.060022768
184.53354 208.72786 0.23648834
184.53354 219.16426 0.23648834
184.53354 177.41869 0.23648834
184.93402 177.41869 0.51880479
185.25385 177.41869 0.89002663
184.07643 156.5459 0.060022768
184.07643 146.1095 0.060022768
184.07643 135.67311 0.060022768
184.53354 135.67311 0.23648834
184.53354 146.1095 0.23648834
184.53354 104.36393 0.23648834
184.93402 104.36393 0.51880479
185.25385 104.36393 0.89002663
184.07643 83.491142 0.060022768
184.07643 73.054749 0.060022768
184.07643 62.618359 0.060022768
184.53354 62.618359 0.23648834
184.53354 73.054749 0.23648834
184.07643 10.436393 0.060022768
184.53354 8.8817842e-15 0.23648834
184.53354 -10.436393 0.23648834
184.93402 -10.436393 0.51880479
184.53354 -41.745571 0.23648834
184.93402 -41.745571 0.51880479
185.25385 -41.745571 0.89002663
184.07643 -62.618359 0.060022768
184.07643 -73.054749 0.060022768
184.07643 -83.491142 0.060022768
184.53354 -83.491142 0.23648834
184.53354 -73.054749 0.23648834
184.53354 -114.80032 0.23648834
184.93402 -114.80032 0.51880479
185.25385 -114.80032 0.89002663
184.07643 -135.67311 0.060022768
184.07643 -146.1095 0.060022768
184.07643 -156.5459 0.060022768
184.53354 -156.5459 0.23648834
184.53354 -146.1095 0.23648834
184.53354 -187.85507 0.23648834
184.93402 -187.85507 0.51880479
185.25385 -187.85507 0.89002663
184.07643 -208.72786 0.060022768
184.07643 -219.16426 0.060022768
184.07643 -229.60065 0.060022768
184.53354 -229.60065 0.23648834
184.53354 -219.16426 0.23648834
184.93402 240.03703 0.51880479
185.25385 229.60065 0.89002663
184.93402 208.72786 0.51880479
184.93402 166.98228 0.51880479
185.25385 156.5459 0.89002663
184.93402 135.67311 0.51880479
184.93402 93.927536 0.51880479
185.25385 83.491142 0.89002663
184.93402 62.618359 0.51880479
184.93402 -52.181965 0.51880479
185.25385 -62.618359 0.89002663
184.93402 -83.491142 0.51880479
184.93402 -125.23672 0.51880479
185.25385 -135.67311 0.89002663
184.93402 -156.5459 0.51880479
184.93402 -198.29147 0.51880479
185.25385 -208.72786 0.89002663
184.93402 -229.60065 0.51880479
185.25385 240.03703 0.89002663
185.25385 166.98228 0.89002663
185.25385 93.927536 0.89002663
185.25385 31.309179 0.89002663
185.25385 -52.181965 0.89002663
185.25385 -125.23672 0.89002663
185.25385 -198.29147 0.89002663
-173.80542 -283.36166 0
-171.34622 -283.59012 0
-173.86823 -283.69333 0.028737953
-171.34622 -284.07642 0.060022768
-173.94302 -284.08817 0.14176191
-171.34622 -284.53354 0.23648834
-174.01181 -284.45142 0.33574992
-171.34622 -284.93402 0.51880479
-174.04822 -284.64362 0.48428786
-171.34622 -285.25385 0.89002663
-174.10667 -284.95224 0.82567692
-171.34622 -285.47382 1.3278722
-174.53964 -285.0907 1.2183418
-176.71983 -284.15002 0.77512932
-177.52776 -284.04642 1.1425821
-179.1026 -282.87839 0.74425268
-180.18146 -282.38608 1.1038657
-181.1783 -281.17834 0.73384273
-182.38609 -280.18146 1.1038657
-182.8777 -279.10205 0.74428004
-184.0464 -277.52777 1.1425821
-184.15065 -276.72015 0.77510816
-185.09068 -274.53964 1.2183418
-184.95203 -274.1066 0.82568371
-185.4738 -271.34622 1.3278722
-185.25385 -271.34622 0.89002663
-184.93402 -271.34622 0.51880479
-184.64339 -274.04816 0.48429134
-183.86047 -276.60373 0.45364326
-182.61766 -278.931 0.43502578
-180.95854 -280.95856 0.4287436
-178.9315 -282.61835 0.43501303
-178.82718 -282.45975 0.30115891
-176.53191 -283.68155 0.31423184
-176.39774 -283.34714 0.1325261
-184.4512 -274.01175 0.33575216
-184.53354 -271.34622 0.23648834
-184.08797 -273.94296 0.14176276
-184.07643 -271.34622 0.060022768
-183.6931 -273.86819 0.028738113
-183.59013 -271.34622 0
-183.36165 -273.80542 0
-182.9863 -276.25299 0.026846115
-182.68379 -276.13159 0
-181.84421 -278.42221 0.025701551
-181.57898 -278.24774 0
-180.3078 -280.3078 0.0253169
-180.08379 -280.0838 0
-178.24774 -281.57898 0
-178.42267 -281.84488 0.025701052
-176.13159 -282.68378 0
-176.25273 -282.98572 0.026846526
-176.60344 -283.85986 0.45365337
-178.63243 -282.16373 0.12692596
-180.82489 -280.82492 0.29676622
-182.45909 -278.82669 0.3011668
-183.68214 -276.5322 0.31422549
-180.57579 -280.57581 0.12504648
-182.16306 -278.63196 0.12692876
-183.34775 -276.39801 0.1325238
-185.25385 260.90982 0.89002663
-185.25385 250.47343 0.89002663
-185.25385 240.03703 0.89002663
-184.93402 240.03703 0.51880479
-184.93402 229.60065 0.51880479
-184.53354 229.60065 0.23648834
-184.53354 219.16426 0.23648834
-184.07643 219.16426 0.060022768
-184.07643 208.72786 0.060022768
-184.07643 198.29147 0.060022768
-184.07643 187.85507 0.060022768
-184.53354 198.29147 0.23648834
-184.53354 187.85507 0.23648834
-184.93402 198.29147 0.51880479
-184.93402 187.85507 0.51880479
-185.25385 198.29147 0.89002663
-185.25385 187.85507 0.89002663
-185.25385 177.41869 0.89002663
-185.25385 166.98228 0.89002663
-184.93402 166.98228 0.51880479
-184.93402 156.5459 0.51880479
-184.53354 156.5459 0.23648834
-184.53354 146.1095 0.23648834
-184.07643 146.1095 0.060022768
-184.07643 135.67311 0.060022768
-184.07643 125.23672 0.060022768
-184.07643 114.80032 0.060022768
-184.53354 125.23672 0.23648834
-184.53354 114.80032 0.23648834
-184.93402 125.23672 0.51880479
-184.93402 114.80032 0.51880479
-185.25385 125.23672 0.89002663
-185.25385 114.80032 0.89002663
-185.25385 104.36393 0.89002663
-185.25385 93.927536 0.89002663
-184.93402 93.927536 0.51880479
-184.93402 83.491142 0.51880479
-184.53354 83.491142 0.23648834
-184.53354 73.054749 0.23648834
-184.07643 73.054749 0.060022768
-184.07643 62.618359 0.060022768
-184.07643 52.181965 0.060022768
-184.07643 41.745571 0.060022768
-184.53354 52.181965 0.23648834
-184.53354 41.745571 0.23648834
-184.93402 52.181965 0.51880479
-184.93402 41.745571 0.51880479
-185.25385 52.181965 0.89002663
-185.25385 41.745571 0.89002663
-185.25385 31.309179 0.89002663
-185.25385 20.872786 0.89002663
-184.93402 20.872786 0.51880479
-184.93402 10.436393 0.51880479
-184.53354 10.436393 0.23648834
-184.53354 -4.7961635e-14 0.23648834
-184.07643 -4.7961635e-14 0.060022768
-184.07643 -10.436393 0.060022768
-184.07643 -20.872786 0.060022768
-184.07643 -31.309179 0.060022768
-184.53354 -20.872786 0.23648834
-184.53354 -31.309179 0.23648834
-184.93402 -20.872786 0.51880479
-184.93402 -31.309179 0.51880479
-185.25385 -20.872786 0.89002663
-185.25385 -31.309179 0.89002663
-185.25385 -41.745571 0.89002663
-185.25385 -52.181965 0.89002663
-184.93402 -52.181965 0.51880479
-184.93402 -62.618359 0.51880479
-184.53354 -62.618359 0.23648834
-184.53354 -73.054749 0.23648834
-184.07643 -73.054749 0.060022768
-184.07643 -83.491142 0.060022768
-184.07643 -93.927536 0.060022768
-184.07643 -104.36393 0.060022768
-184.53354 -93.927536 0.23648834
-184.53354 -104.36393 0.23648834
-184.93402 -93.927536 0.51880479
-184.93402 -104.36393 0.51880479
-185.25385 -93.927536 0.89002663
-185.25385 -104.36393 0.89002663
-185.25385 -114.80032 0.89002663
-185.25385 -125.23672 0.89002663
-184.93402 -125.23672 0.51880479
-184.93402 -135.67311 0.51880479
-184.53354 -135.67311 0.23648834
-184.53354 -146.1095 0.23648834
-184.07643 -146.1095 0.060022768
-184.07643 -156.5459 0.060022768
-184.07643 -166.98228 0.060022768
-184.07643 -177.41869 0.060022768
-184.53354 -166.98228 0.23648834
-184.53354 -177.41869 0.23648834
-184.93402 -166.98228 0.51880479
-184.93402 -177.41869 0.51880479
-185.25385 -166.98228 0.89002663
-185.25385 -177.41869 0.89002663
-185.25385 -187.85507 0.89002663
-185.25385 -198.29147 0.89002663
-184.93402 -198.29147 0.51880479
-184.93402 -208.72786 0.51880479
-184.53354 -208.72786 0.23648834
-184.53354 -219.16426 0.23648834
-184.07643 -219.16426 0.060022768
-184.07643 -229.60065 0.060022768
-184.07643 -240.03703 0.060022768
-184.07643 -250.47343 0.060022768
-184.53354 -240.03703 0.23648834
-184.53354 -250.47343 0.23648834
-184.93402 -240.03703 0.51880479
-184.93402 -250.47343 0.51880479
-185.25385 -240.03703 0.89002663
-185.25385 -250.47343 0.89002663
-185.25385 -260.90982 0.89002663
-184.93402 -260.90982 0.51880479
-184.53354 -260.90982 0.23648834
-184.07643 -260.90982 0.060022768
-184.93402 260.90982 0.51880479
-184.53354 260.90982 0.23648834
-184.07643 260.90982 0.060022768
-184.07643 10.436393 0.060022768
-184.07643 20.872786 0.060022768
-184.53354 20.872786 0.23648834
-184.53354 31.309179 0.23648834
-184.93402 31.309179 0.51880479
-185.25385 -4.7961635e-14 0.89002663
-185.25385 -10.436393 0.89002663
-184.93402 250.47343 0.51880479
-184.53354 250.47343 0.23648834
-184.07643 250.47343 0.060022768
-185.25385 229.60065 0.89002663
-185.25385 219.16426 0.89002663
-185.25385 208.72786 0.89002663
-184.93402 208.72786 0.51880479
-184.93402 219.16426 0.51880479
-184.93402 177.41869 0.51880479
-184.53354 177.41869 0.23648834
-184.07643 177.41869 0.060022768
-185.25385 156.5459 0.89002663
-185.25385 146.1095 0.89002663
-185.25385 135.67311 0.89002663
-184.93402 135.67311 0.51880479
-184.93402 146.1095 0.51880479
-184.93402 104.36393 0.51880479
-184.53354 104.36393 0.23648834
-184.07643 104.36393 0.060022768
-185.25385 83.491142 0.89002663
-185.25385 73.054749 0.89002663
-185.25385 62.618359 0.89002663
-184.93402 62.618359 0.51880479
-184.93402 73.054749 0.51880479
-185.25385 10.436393 0.89002663
-184.93402 -4.7961635e-14 0.51880479
-184.93402 -10.436393 0.51880479
-184.53354 -10.436393 0.23648834
-184.93402 -41.745571 0.51880479
-184.53354 -41.745571 0.23648834
-184.07643 -41.745571 0.060022768
-185.25385 -62.618359 0.89002663
-185.25385 -73.054749 0.89002663
-185.25385 -83.491142 0.89002663
-184.93402 -83.491142 0.51880479
-184.93402 -73.054749 0.51880479
-184.93402 -114.80032 0.51880479
-184.53354 -114.80032 0.23648834
-184.07643 -114.80032 0.060022768
-185.25385 -135.67311 0.89002663
-185.25385 -146.1095 0.89002663
-185.25385 -156.5459 0.89002663
-184.93402 -156.5459 0.51880479
-184.93402 -146.1095 0.51880479
-184.93402 -187.85507 0.51880479
-184.53354 -187.85507 0.23648834
-184.07643 -187.85507 0.060022768
-185.25385 -208.72786 0.89002663
-185.25385 -219.16426 0.89002663
-185.25385 -229.60065 0.89002663
-184.93402 -229.60065 0.51880479
-184.93402 -219.16426 0.51880479
-184.53354 240.03703 0.23648834
-184.07643 229.60065 0.060022768
-184.53354 208.72786 0.23648834
-184.53354 166.98228 0.23648834
-184.07643 156.5459 0.060022768
-184.53354 135.67311 0.23648834
-184.53354 93.927536 0.23648834
-184.07643 83.491142 0.060022768
-184.53354 62.618359 0.23648834
-184.53354 -52.181965 0.23648834
-184.07643 -62.618359 0.060022768
-184.53354 -83.491142 0.23648834
-184.53354 -125.23672 0.23648834
-184.07643 -135.67311 0.060022768
-184.53354 -156.5459 0.23648834
-184.53354 -198.29147 0.23648834
-184.07643 -208.72786 0.060022768
-184.53354 -229.60065 0.23648834
-184.07643 240.03703 0.060022768
-184.07643 166.98228 0.060022768
-184.07643 93.927536 0.060022768
-184.07643 31.309179 0.060022768
-184.07643 -52.181965 0.060022768
-184.07643 -125.23672 0.060022768
-184.07643 -198.29147 0.060022768
183.36165 -273.80542 0
183.69331 -273.86823 0.028737953
184.08818 -273.94302 0.14176191
184.45142 -274.01181 0.33574992
184.6436 -274.04822 0.48428786
184.95224 -274.10666 0.82567692
185.09068 -274.53964 1.2183418
184.15002 -276.71985 0.77512932
184.0464 -277.52777 1.1425821
182.8784 -279.1026 0.74425268
182.38609 -280.18146 1.1038657
181.17834 -281.17831 0.73384273
180.18146 -282.38608 1.1038657
179.10205 -282.87772 0.74428004
177.52776 -284.04642 1.1425821
176.72015 -284.15063 0.77510816
174.53964 -285.0907 1.2183418
174.10661 -284.95203 0.82568371
171.34622 -285.47382 1.3278722
171.34622 -285.25385 0.89002663
171.34622 -284.93402 0.51880479
174.04816 -284.6434 0.48429134
176.60373 -283.86047 0.45364326
178.93098 -282.61768 0.43502578
180.95857 -280.95856 0.4287436
182.61833 -278.93149 0.43501303
182.45976 -278.82718 0.30115891
183.68156 -276.53189 0.31423184
183.34715 -276.39774 0.1325261
174.01176 -284.4512 0.33575216
171.34622 -284.53354 0.23648834
173.94296 -284.08798 0.14176276
171.34622 -284.07642 0.060022768
173.86819 -283.69312 0.028738113
171.34622 -283.59012 0
173.80542 -283.36166 0
176.25298 -282.9863 0.026846115
176.13159 -282.68378 0
178.42221 -281.84421 0.025701551
178.24774 -281.57898 0
180.3078 -280.3078 0.0253169
180.08379 -280.0838 0
181.57898 -278.24774 0
181.84489 -278.42267 0.025701052
182.68379 -276.13159 0
182.9857 -276.25272 0.026846526
183.85988 -276.60345 0.45365337
182.16374 -278.63242 0.12692596
180.82491 -280.82489 0.29676622
178.82668 -282.45908 0.3011668
176.53218 -283.68216 0.31422549
180.57581 -280.57578 0.12504648
178.63196 -282.16306 0.12692876
176.39801 -283.34775 0.1325238
182.97588 -272.42484 4.2183418
183.35899 -269.23141 4.3278723
182.83743 -271.99185 3.8256769
183.13904 -269.23141 3.8900266
182.81921 -269.23141 3.5188048
182.41873 -269.23141 3.2364883
182.33661 -271.897 3.3357499
182.52879 -271.93341 3.4842877
182.03522 -274.60504 3.7751293
181.93159 -275.41296 4.1425819
180.7636 -276.98779 3.7442527
180.27129 -278.06665 4.1038656
179.06354 -279.06351 3.7338426
178.06665 -280.27127 4.1038656
176.98724 -280.76291 3.7442801
175.41295 -281.93161 4.1425819
174.60535 -282.03583 3.7751081
172.42484 -282.97589 4.2183418
171.99181 -282.83722 3.8256838
169.23141 -283.35901 4.3278723
169.23141 -283.13904 3.8900266
171.93335 -282.52859 3.4842913
169.23141 -282.81921 3.5188048
171.89696 -282.3364 3.3357522
169.23141 -282.41873 3.2364883
171.82816 -281.97318 3.1417627
169.23141 -281.96161 3.0600228
171.75339 -281.57831 3.028738
169.23141 -281.47531 3
171.69061 -281.24686 3
174.13817 -280.87149 3.0268462
174.01678 -280.56897 3
176.3074 -279.7294 3.0257015
176.13293 -279.46417 3
178.19299 -278.19299 3.025317
177.96898 -277.96899 3
179.46417 -276.13293 3
179.73009 -276.30786 3.025701
180.56898 -274.01678 3
180.8709 -274.13791 3.0268464
181.24684 -271.69061 3
181.57851 -271.75342 3.028738
181.47533 -269.23141 3
181.96162 -269.23141 3.0600228
181.97337 -271.82822 3.141762
181.23235 -274.28293 3.1325262
180.04893 -276.51761 3.1269259
178.461 -278.46097 3.1250465
181.56676 -274.41708 3.3142319
180.34496 -276.71237 3.3011589
178.7101 -278.71008 3.2967663
176.51715 -280.04825 3.1269288
181.74507 -274.48865 3.4536533
180.50352 -276.81668 3.4350131
178.84377 -278.84375 3.4287436
176.71187 -280.34427 3.3011668
174.2832 -281.23294 3.1325238
176.81618 -280.50287 3.4350257
174.41737 -281.56735 3.3142254
174.48892 -281.74567 3.4536433
181.96162 -258.67331 3.0600228
181.96162 -248.11522 3.0600228
181.96162 -237.55713 3.0600228
182.41873 -237.55713 3.2364883
182.41873 -226.99904 3.2364883
182.81921 -226.99904 3.5188048
182.81921 -216.44093 3.5188048
183.13904 -216.44093 3.8900266
183.13904 -205.88284 3.8900266
183.13904 -195.32475 3.8900266
183.13904 -184.76666 3.8900266
182.81921 -195.32475 3.5188048
182.81921 -184.76666 3.5188048
182.41873 -195.32475 3.2364883
182.41873 -184.76666 3.2364883
181.96162 -195.32475 3.0600228
181.96162 -184.76666 3.0600228
181.96162 -174.20856 3.0600228
181.96162 -163.65047 3.0600228
182.41873 -163.65047 3.2364883
182.41873 -153.09238 3.2364883
182.81921 -153.09238 3.5188048
182.81921 -142.53427 3.5188048
183.13904 -142.53427 3.8900266
183.13904 -131.97618 3.8900266
183.13904 -121.41809 3.8900266
183.13904 -110.85999 3.8900266
182.81921 -121.41809 3.5188048
182.81921 -110.85999 3.5188048
182.41873 -121.41809 3.2364883
182.41873 -110.85999 3.2364883
181.96162 -121.41809 3.0600228
181.96162 -110.85999 3.0600228
181.96162 -100.3019 3.0600228
181.96162 -89.743805 3.0600228
182.41873 -89.743805 3.2364883
182.41873 -79.185707 3.2364883
182.81921 -79.185707 3.5188048
182.81921 -68.627617 3.5188048
183.13904 -68.627617 3.8900266
183.13904 -58.069519 3.8900266
183.13904 -47.511425 3.8900266
183.13904 -36.953331 3.8900266
182.81921 -47.511425 3.5188048
182.81921 -36.953331 3.5188048
182.41873 -47.511425 3.2364883
182.41873 -36.953331 3.2364883
181.96162 -47.511425 3.0600228
181.96162 -36.953331 3.0600228
181.96162 -26.395237 3.0600228
181.96162 -15.837142 3.0600228
182.41873 -15.837142 3.2364883
182.41873 -5.2790475 3.2364883
182.81921 -5.2790475 3.5188048
182.81921 5.2790475 3.5188048
183.13904 5.2790475 3.8900266
183.13904 15.837142 3.8900266
183.35899 269.23141 4.3278723
183.13904 26.395237 3.8900266
183.13904 36.953331 3.8900266
182.81921 26.395237 3.5188048
182.81921 36.953331 3.5188048
182.41873 26.395237 3.2364883
182.41873 36.953331 3.2364883
181.96162 26.395237 3.0600228
181.96162 36.953331 3.0600228
181.47533 269.23141 3
181.96162 47.511425 3.0600228
181.96162 58.069519 3.0600228
182.41873 58.069519 3.2364883
182.41873 68.627617 3.2364883
182.81921 68.627617 3.5188048
182.81921 79.185707 3.5188048
183.13904 79.185707 3.8900266
183.13904 89.743805 3.8900266
183.13904 100.3019 3.8900266
183.13904 110.85999 3.8900266
182.81921 100.3019 3.5188048
182.81921 110.85999 3.5188048
182.41873 100.3019 3.2364883
182.41873 110.85999 3.2364883
181.96162 100.3019 3.0600228
181.96162 110.85999 3.0600228
181.96162 121.41809 3.0600228
181.96162 131.97618 3.0600228
182.41873 131.97618 3.2364883
182.41873 142.53427 3.2364883
182.81921 142.53427 3.5188048
182.81921 153.09238 3.5188048
183.13904 153.09238 3.8900266
183.13904 163.65047 3.8900266
183.13904 174.20856 3.8900266
183.13904 184.76666 3.8900266
182.81921 174.20856 3.5188048
182.81921 184.76666 3.5188048
182.41873 174.20856 3.2364883
182.41873 184.76666 3.2364883
181.96162 174.20856 3.0600228
181.96162 184.76666 3.0600228
181.96162 195.32475 3.0600228
181.96162 205.88284 3.0600228
182.41873 205.88284 3.2364883
182.41873 216.44093 3.2364883
182.81921 216.44093 3.5188048
182.81921 226.99904 3.5188048
183.13904 226.99904 3.8900266
183.13904 237.55713 3.8900266
183.13904 248.11522 3.8900266
183.13904 258.67331 3.8900266
182.81921 248.11522 3.5188048
182.81921 258.67331 3.5188048
182.41873 248.11522 3.2364883
182.41873 258.67331 3.2364883
181.96162 248.11522 3.0600228
181.96162 258.67331 3.0600228
181.96162 269.23141 3.0600228
182.41873 269.23141 3.2364883
182.81921 269.23141 3.5188048
183.13904 269.23141 3.8900266
182.41873 -258.67331 3.2364883
182.81921 -258.67331 3.5188048
183.13904 -258.67331 3.8900266
183.13904 -5.2790475 3.8900266
183.13904 -15.837142 3.8900266
183.13904 -26.395237 3.8900266
182.81921 -26.395237 3.5188048
181.96162 5.2790475 3.0600228
181.96162 15.837142 3.0600228
182.41873 -248.11522 3.2364883
182.81921 -248.11522 3.5188048
183.13904 -248.11522 3.8900266
181.96162 -226.99904 3.0600228
181.96162 -216.44093 3.0600228
181.96162 -205.88284 3.0600228
182.41873 -205.88284 3.2364883
182.41873 -216.44093 3.2364883
182.41873 -174.20856 3.2364883
182.81921 -174.20856 3.5188048
183.13904 -174.20856 3.8900266
181.96162 -153.09238 3.0600228
181.96162 -142.53427 3.0600228
181.96162 -131.97618 3.0600228
182.41873 -131.97618 3.2364883
182.41873 -142.53427 3.2364883
182.41873 -100.3019 3.2364883
182.81921 -100.3019 3.5188048
183.13904 -100.3019 3.8900266
181.96162 -79.185707 3.0600228
181.96162 -68.627617 3.0600228
181.96162 -58.069519 3.0600228
182.41873 -58.069519 3.2364883
182.41873 -68.627617 3.2364883
182.41873 -26.395237 3.2364883
181.96162 -5.2790475 3.0600228
182.41873 5.2790475 3.2364883
182.41873 15.837142 3.2364883
182.81921 15.837142 3.5188048
182.41873 47.511425 3.2364883
182.81921 47.511425 3.5188048
183.13904 47.511425 3.8900266
181.96162 68.627617 3.0600228
181.96162 79.185707 3.0600228
181.96162 89.743805 3.0600228
182.41873 89.743805 3.2364883
182.41873 79.185707 3.2364883
182.41873 121.41809 3.2364883
182.81921 121.41809 3.5188048
183.13904 121.41809 3.8900266
181.96162 142.53427 3.0600228
181.96162 153.09238 3.0600228
181.96162 163.65047 3.0600228
182.41873 163.65047 3.2364883
182.41873 153.09238 3.2364883
182.41873 195.32475 3.2364883
182.81921 195.32475 3.5188048
183.13904 195.32475 3.8900266
181.96162 216.44093 3.0600228
181.96162 226.99904 3.0600228
181.96162 237.55713 3.0600228
182.41873 237.55713 3.2364883
182.41873 226.99904 3.2364883
182.81921 -237.55713 3.5188048
183.13904 -226.99904 3.8900266
182.81921 -205.88284 3.5188048
182.81921 -163.65047 3.5188048
183.13904 -153.09238 3.8900266
182.81921 -131.97618 3.5188048
182.81921 -89.743805 3.5188048
183.13904 -79.185707 3.8900266
182.81921 -58.069519 3.5188048
182.81921 -15.837142 3.5188048
182.81921 58.069519 3.5188048
183.13904 68.627617 3.8900266
182.81921 89.743805 3.5188048
182.81921 131.97618 3.5188048
183.13904 142.53427 3.8900266
182.81921 163.65047 3.5188048
182.81921 205.88284 3.5188048
183.13904 216.44093 3.8900266
182.81921 237.55713 3.5188048
183.13904 -237.55713 3.8900266
183.13904 -163.65047 3.8900266
183.13904 -89.743805 3.8900266
183.13904 58.069519 3.8900266
183.13904 131.97618 3.8900266
183.13904 205.88284 3.8900266
-181.24684 -271.69061 3
-181.47533 -269.23141 3
-181.70097 -271.77661 3.0541694
-181.96162 -269.23141 3.0600228
-182.13054 -271.85797 3.2137094
-182.41873 -269.23141 3.2364883
-182.33661 -271.897 3.3357499
-182.81921 -269.23141 3.5188048
-182.65312 -271.95694 3.6031454
-183.13904 -269.23141 3.8900266
-182.90802 -272.00522 3.9317234
-183.35899 -269.23141 4.3278723
-182.97588 -272.42484 4.2183418
-182.10272 -274.63211 3.8753052
-181.93159 -275.41296 4.1425819
-180.82468 -277.02798 3.8407977
-180.27129 -278.06665 4.1038656
-179.11534 -279.1153 3.8291543
-178.06665 -280.27127 4.1038656
-177.02742 -280.82397 3.8408306
-175.41295 -281.93161 4.1425819
-174.63243 -282.10333 3.8752799
-172.42484 -282.97589 4.2183418
-172.00517 -282.90778 3.9317312
-169.23141 -283.35901 4.3278723
-169.23141 -283.13904 3.8900266
-171.95689 -282.65289 3.6031499
-169.23141 -282.81921 3.5188048
-171.89696 -282.3364 3.3357522
-169.23141 -282.41873 3.2364883
-171.85793 -282.13034 3.2137105
-169.23141 -281.96161 3.0600228
-171.77658 -281.70078 3.0541697
-169.23141 -281.47531 3
-171.69061 -281.24686 3
-174.18309 -280.98346 3.0506139
-174.01678 -280.56897 3
-176.37231 -279.82809 3.0484622
-176.13293 -279.46417 3
-178.27592 -278.27591 3.0477388
-177.96898 -277.96899 3
-179.46417 -276.13293 3
-179.82877 -276.37277 3.0484612
-180.56898 -274.01678 3
-180.98285 -274.18283 3.0506146
-181.86122 -274.53522 3.5654087
-181.56676 -274.41708 3.3142319
-181.37672 -274.34085 3.1998682
-180.60725 -276.88492 3.542417
-180.34496 -276.71237 3.3011589
-180.17657 -276.60159 3.1914699
-178.9313 -278.93127 3.5346777
-178.7101 -278.71008 3.2967663
-178.56836 -278.56836 3.1886501
-176.88441 -280.60657 3.5424342
-174.53552 -281.86182 3.5653951
-176.71187 -280.34427 3.3011668
-174.41737 -281.56735 3.3142254
-176.6011 -280.1759 3.1914744
-174.34113 -281.37732 3.1998646
158.65445 -283.13904 3.8900266
148.07748 -283.13904 3.8900266
137.50052 -283.13904 3.8900266
137.50052 -282.81921 3.5188048
126.92356 -282.81921 3.5188048
126.92356 -282.41873 3.2364883
116.3466 -282.41873 3.2364883
116.3466 -281.96161 3.0600228
105.76963 -281.96161 3.0600228
95.192673 -281.96161 3.0600228
84.615707 -281.96161 3.0600228
95.192673 -282.41873 3.2364883
84.615707 -282.41873 3.2364883
95.192673 -282.81921 3.5188048
84.615707 -282.81921 3.5188048
95.192673 -283.13904 3.8900266
84.615707 -283.13904 3.8900266
74.038742 -283.13904 3.8900266
63.461781 -283.13904 3.8900266
63.461781 -282.81921 3.5188048
52.884815 -282.81921 3.5188048
52.884815 -282.41873 3.2364883
42.307854 -282.41873 3.2364883
42.307854 -281.96161 3.0600228
31.73089 -281.96161 3.0600228
21.153927 -281.96161 3.0600228
10.576963 -281.96161 3.0600228
21.153927 -282.41873 3.2364883
10.576963 -282.41873 3.2364883
21.153927 -282.81921 3.5188048
10.576963 -282.81921 3.5188048
21.153927 -283.13904 3.8900266
10.576963 -283.13904 3.8900266
0 -283.13904 3.8900266
-10.576963 -283.13904 3.8900266
-21.153927 -283.13904 3.8900266
-21.153927 -282.81921 3.5188048
-31.73089 -282.81921 3.5188048
-31.73089 -282.41873 3.2364883
-42.307854 -282.41873 3.2364883
-42.307854 -281.96161 3.0600228
-52.884815 -281.96161 3.0600228
-63.461781 -281.96161 3.0600228
-74.038742 -281.96161 3.0600228
-63.461781 -282.41873 3.2364883
-74.038742 -282.41873 3.2364883
-63.461781 -282.81921 3.5188048
-74.038742 -282.81921 3.5188048
-63.461781 -283.13904 3.8900266
-74.038742 -283.13904 3.8900266
-84.615707 -283.13904 3.8900266
-95.192673 -283.13904 3.8900266
-95.192673 -282.81921 3.5188048
-105.76963 -282.81921 3.5188048
-105.76963 -282.41873 3.2364883
-116.3466 -282.41873 3.2364883
-116.3466 -281.96161 3.0600228
-126.92356 -281.96161 3.0600228
-137.50052 -281.96161 3.0600228
-148.07748 -281.96161 3.0600228
-137.50052 -282.41873 3.2364883
-148.07748 -282.41873 3.2364883
-137.50052 -282.81921 3.5188048
-148.07748 -282.81921 3.5188048
-137.50052 -283.13904 3.8900266
-148.07748 -283.13904 3.8900266
-158.65445 -283.13904 3.8900266
-158.65445 -282.81921 3.5188048
-158.65445 -282.41873 3.2364883
-158.65445 -281.96161 3.0600228
158.65445 -282.81921 3.5188048
158.65445 -282.41873 3.2364883
158.65445 -281.96161 3.0600228
0 -281.96161 3.0600228
-10.576963 -281.96161 3.0600228
-21.153927 -281.96161 3.0600228
-10.576963 -282.41873 3.2364883
-21.153927 -282.41873 3.2364883
-10.576963 -282.81921 3.5188048
148.07748 -282.81921 3.5188048
148.07748 -282.41873 3.2364883
148.07748 -281.96161 3.0600228
126.92356 -283.13904 3.8900266
116.3466 -283.13904 3.8900266
105.76963 -283.13904 3.8900266
105.76963 -282.81921 3.5188048
116.3466 -282.81921 3.5188048
74.038742 -282.81921 3.5188048
74.038742 -282.41873 3.2364883
74.038742 -281.96161 3.0600228
52.884815 -283.13904 3.8900266
42.307854 -283.13904 3.8900266
31.73089 -283.13904 3.8900266
31.73089 -282.81921 3.5188048
42.307854 -282.81921 3.5188048
0 -282.81921 3.5188048
0 -282.41873 3.2364883
-31.73089 -283.13904 3.8900266
-42.307854 -283.13904 3.8900266
-52.884815 -283.13904 3.8900266
-52.884815 -282.81921 3.5188048
-42.307854 -282.81921 3.5188048
-84.615707 -282.81921 3.5188048
-84.615707 -282.41873 3.2364883
-84.615707 -281.96161 3.0600228
-105.76963 -283.13904 3.8900266
-116.3466 -283.13904 3.8900266
-126.92356 -283.13904 3.8900266
-126.92356 -282.81921 3.5188048
-116.3466 -282.81921 3.5188048
137.50052 -282.41873 3.2364883
126.92356 -281.96161 3.0600228
105.76963 -282.41873 3.2364883
63.461781 -282.41873 3.2364883
52.884815 -281.96161 3.0600228
31.73089 -282.41873 3.2364883
-52.884815 -282.41873 3.2364883
-95.192673 -282.41873 3.2364883
-105.76963 -281.96161 3.0600228
-126.92356 -282.41873 3.2364883
137.50052 -281.96161 3.0600228
63.461781 -281.96161 3.0600228
-31.73089 -281.96161 3.0600228
-95.192673 -281.96161 3.0600228
181.24684 271.69061 3
181.70097 271.77661 3.0541694
182.13054 271.85797 3.2137094
182.33661 271.897 3.3357499
182.65312 271.95694 3.6031454
182.90802 272.00522 3.9317234
182.97588 272.42484 4.2183418
182.10272 274.63211 3.8753052
181.93159 275.41296 4.1425819
180.82468 277.02798 3.8407977
180.27129 278.06665 4.1038656
179.11534 279.1153 3.8291543
178.06665 280.27127 4.1038656
177.02742 280.82397 3.8408306
175.41295 281.93161 4.1425819
174.63243 282.10333 3.8752799
172.42484 282.97589 4.2183418
172.00517 282.90778 3.9317312
169.23141 283.35901 4.3278723
169.23141 283.13904 3.8900266
171.95689 282.65289 3.6031499
169.23141 282.81921 3.5188048
171.89696 282.3364 3.3357522
169.23141 282.41873 3.2364883
171.85793 282.13034 3.2137105
169.23141 281.96161 3.0600228
171.77658 281.70078 3.0541697
169.23141 281.47531 3
171.69061 281.24686 3
174.18309 280.98346 3.0506139
174.01678 280.56897 3
176.37231 279.82809 3.0484622
176.13293 279.46417 3
178.27592 278.27591 3.0477388
177.96898 277.96899 3
179.46417 276.13293 3
179.82877 276.37277 3.0484612
180.56898 274.01678 3
180.98285 274.18283 3.0506146
181.86122 274.53522 3.5654087
181.56676 274.41708 3.3142319
181.37672 274.34085 3.1998682
180.60725 276.88492 3.542417
180.34496 276.71237 3.3011589
180.17657 276.60159 3.1914699
178.9313 278.93127 3.5346777
178.7101 278.71008 3.2967663
178.56836 278.56836 3.1886501
176.88441 280.60657 3.5424342
174.53552 281.86182 3.5653951
176.71187 280.34427 3.3011668
174.41737 281.56735 3.3142254
176.6011 280.1759 3.1914744
174.34113 281.37732 3.1998646
158.65445 281.96161 3.0600228
148.07748 281.96161 3.0600228
137.50052 281.96161 3.0600228
137.50052 282.41873 3.2364883
126.92356 282.41873 3.2364883
126.92356 282.81921 3.5188048
116.3466 282.81921 3.5188048
116.3466 283.13904 3.8900266
105.76963 283.13904 3.8900266
95.192673 283.13904 3.8900266
84.615707 283.13904 3.8900266
95.192673 282.81921 3.5188048
84.615707 282.81921 3.5188048
95.192673 282.41873 3.2364883
84.615707 282.41873 3.2364883
95.192673 281.96161 3.0600228
84.615707 281.96161 3.0600228
74.038742 281.96161 3.0600228
63.461781 281.96161 3.0600228
63.461781 282.41873 3.2364883
52.884815 282.41873 3.2364883
52.884815 282.81921 3.5188048
42.307854 282.81921 3.5188048
42.307854 283.13904 3.8900266
31.73089 283.13904 3.8900266
21.153927 283.13904 3.8900266
10.576963 283.13904 3.8900266
21.153927 282.81921 3.5188048
10.576963 282.81921 3.5188048
21.153927 282.41873 3.2364883
10.576963 282.41873 3.2364883
21.153927 281.96161 3.0600228
10.576963 281.96161 3.0600228
-7.1054274e-14 281.96161 3.0600228
-169.23141 281.47531 3
-10.576963 281.96161 3.0600228
-21.153927 281.96161 3.0600228
-21.153927 282.41873 3.2364883
-31.73089 282.41873 3.2364883
-31.73089 282.81921 3.5188048
-42.307854 282.81921 3.5188048
-42.307854 283.13904 3.8900266
-52.884815 283.13904 3.8900266
-169.23141 283.35901 4.3278723
-63.461781 283.13904 3.8900266
-74.038742 283.13904 3.8900266
-63.461781 282.81921 3.5188048
-74.038742 282.81921 3.5188048
-63.461781 282.41873 3.2364883
-74.038742 282.41873 3.2364883
-63.461781 281.96161 3.0600228
-74.038742 281.96161 3.0600228
-84.615707 281.96161 3.0600228
-95.192673 281.96161 3.0600228
-95.192673 282.41873 3.2364883
-105.76963 282.41873 3.2364883
-105.76963 282.81921 3.5188048
-116.3466 282.81921 3.5188048
-116.3466 283.13904 3.8900266
-126.92356 283.13904 3.8900266
-137.50052 283.13904 3.8900266
-148.07748 283.13904 3.8900266
-137.50052 282.81921 3.5188048
-148.07748 282.81921 3.5188048
-137.50052 282.41873 3.2364883
-148.07748 282.41873 3.2364883
-137.50052 281.96161 3.0600228
-148.07748 281.96161 3.0600228
-158.65445 281.96161 3.0600228
-169.23141 281.96161 3.0600228
-169.23141 282.41873 3.2364883
-158.65445 282.41873 3.2364883
-169.23141 282.81921 3.5188048
-158.65445 282.81921 3.5188048
-169.23141 283.13904 3.8900266
-158.65445 283.13904 3.8900266
158.65445 282.41873 3.2364883
158.65445 282.81921 3.5188048
158.65445 283.13904 3.8900266
-7.1054274e-14 283.13904 3.8900266
-10.576963 283.13904 3.8900266
-21.153927 283.13904 3.8900266
-10.576963 282.81921 3.5188048
-21.153927 282.81921 3.5188048
-10.576963 282.41873 3.2364883
148.07748 282.41873 3.2364883
148.07748 282.81921 3.5188048
148.07748 283.13904 3.8900266
126.92356 281.96161 3.0600228
116.3466 281.96161 3.0600228
105.76963 281.96161 3.0600228
105.76963 282.41873 3.2364883
116.3466 282.41873 3.2364883
74.038742 282.41873 3.2364883
74.038742 282.81921 3.5188048
74.038742 283.13904 3.8900266
52.884815 281.96161 3.0600228
42.307854 281.96161 3.0600228
31.73089 281.96161 3.0600228
31.73089 282.41873 3.2364883
42.307854 282.41873 3.2364883
-7.1054274e-14 282.41873 3.2364883
-7.1054274e-14 282.81921 3.5188048
-31.73089 281.96161 3.0600228
-42.307854 281.96161 3.0600228
-52.884815 281.96161 3.0600228
-52.884815 282.41873 3.2364883
-42.307854 282.41873 3.2364883
-84.615707 282.41873 3.2364883
-84.615707 282.81921 3.5188048
-84.615707 283.13904 3.8900266
-105.76963 281.96161 3.0600228
-116.3466 281.96161 3.0600228
-126.92356 281.96161 3.0600228
-126.92356 282.41873 3.2364883
-116.3466 282.41873 3.2364883
137.50052 282.81921 3.5188048
126.92356 283.13904 3.8900266
105.76963 282.81921 3.5188048
63.461781 282.81921 3.5188048
52.884815 283.13904 3.8900266
31.73089 282.81921 3.5188048
-52.884815 282.81921 3.5188048
-95.192673 282.81921 3.5188048
-105.76963 283.13904 3.8900266
-126.92356 282.81921 3.5188048
137.50052 283.13904 3.8900266
63.461781 283.13904 3.8900266
-31.73089 283.13904 3.8900266
-95.192673 283.13904 3.8900266
-182.97588 272.42484 4.2183418
-183.35899 269.23141 4.3278723
-182.83743 271.99185 3.8256769
-183.13904 269.23141 3.8900266
-182.81921 269.23141 3.5188048
-182.41873 269.23141 3.2364883
-182.33661 271.897 3.3357499
-182.52879 271.93341 3.4842877
-182.03522 274.60504 3.7751293
-181.93159 275.41296 4.1425819
-180.7636 276.98779 3.7442527
-180.27129 278.06665 4.1038656
-179.06354 279.06351 3.7338426
-178.06665 280.27127 4.1038656
-176.98724 280.76291 3.7442801
-175.41295 281.93161 4.1425819
-174.60535 282.03583 3.7751081
-172.42484 282.97589 4.2183418
-171.99181 282.83722 3.8256838
-171.93335 282.52859 3.4842913
-171.89696 282.3364 3.3357522
-171.82816 281.97318 3.1417627
-171.75339 281.57831 3.028738
-171.69061 281.24686 3
-174.13817 280.87149 3.0268462
-174.01678 280.56897 3
-176.3074 279.7294 3.0257015
-176.13293 279.46417 3
-178.19299 278.19299 3.025317
-177.96898 277.96899 3
-179.46417 276.13293 3
-179.73009 276.30786 3.025701
-180.56898 274.01678 3
-180.8709 274.13791 3.0268464
-181.24684 271.69061 3
-181.57851 271.75342 3.028738
-181.47533 269.23141 3
-181.96162 269.23141 3.0600228
-181.97337 271.82822 3.141762
-181.23235 274.28293 3.1325262
-180.04893 276.51761 3.1269259
-178.461 278.46097 3.1250465
-181.56676 274.41708 3.3142319
-180.34496 276.71237 3.3011589
-178.7101 278.71008 3.2967663
-176.51715 280.04825 3.1269288
-181.74507 274.48865 3.4536533
-180.50352 276.81668 3.4350131
-178.84377 278.84375 3.4287436
-176.71187 280.34427 3.3011668
-174.2832 281.23294 3.1325238
-176.81618 280.50287 3.4350257
-174.41737 281.56735 3.3142254
-174.48892 281.74567 3.4536433
-183.13904 -258.67331 3.8900266
-183.13904 -248.11522 3.8900266
-183.13904 -237.55713 3.8900266
-182.81921 -237.55713 3.5188048
-182.81921 -226.99904 3.5188048
-182.41873 -226.99904 3.2364883
-182.41873 -216.44093 3.2364883
-181.96162 -216.44093 3.0600228
-181.96162 -205.88284 3.0600228
-181.96162 -195.32475 3.0600228
-181.96162 -184.76666 3.0600228
-182.41873 -195.32475 3.2364883
-182.41873 -184.76666 3.2364883
-182.81921 -195.32475 3.5188048
-182.81921 -184.76666 3.5188048
-183.13904 -195.32475 3.8900266
-183.13904 -184.76666 3.8900266
-183.13904 -174.20856 3.8900266
-183.13904 -163.65047 3.8900266
-182.81921 -163.65047 3.5188048
-182.81921 -153.09238 3.5188048
-182.41873 -153.09238 3.2364883
-182.41873 -142.53427 3.2364883
-181.96162 -142.53427 3.0600228
-181.96162 -131.97618 3.0600228
-181.96162 -121.41809 3.0600228
-181.96162 -110.85999 3.0600228
-182.41873 -121.41809 3.2364883
-182.41873 -110.85999 3.2364883
-182.81921 -121.41809 3.5188048
-182.81921 -110.85999 3.5188048
-183.13904 -121.41809 3.8900266
-183.13904 -110.85999 3.8900266
-183.13904 -100.3019 3.8900266
-183.13904 -89.743805 3.8900266
-182.81921 -89.743805 3.5188048
-182.81921 -79.185707 3.5188048
-182.41873 -79.185707 3.2364883
-182.41873 -68.627617 3.2364883
-181.96162 -68.627617 3.0600228
-181.96162 -58.069519 3.0600228
-181.96162 -47.511425 3.0600228
-181.96162 -36.953331 3.0600228
-182.41873 -47.511425 3.2364883
-182.41873 -36.953331 3.2364883
-182.81921 -47.511425 3.5188048
-182.81921 -36.953331 3.5188048
-183.13904 -47.511425 3.8900266
-183.13904 -36.953331 3.8900266
-183.13904 -26.395237 3.8900266
-183.13904 -15.837142 3.8900266
-182.81921 -15.837142 3.5188048
-182.81921 -5.2790475 3.5188048
-182.41873 -5.2790475 3.2364883
-182.41873 5.2790475 3.2364883
-181.96162 5.2790475 3.0600228
-181.96162 15.837142 3.0600228
-181.96162 26.395237 3.0600228
-181.96162 36.953331 3.0600228
-182.41873 26.395237 3.2364883
-182.41873 36.953331 3.2364883
-182.81921 26.395237 3.5188048
-182.81921 36.953331 3.5188048
-183.13904 26.395237 3.8900266
-183.13904 36.953331 3.8900266
-183.13904 47.511425 3.8900266
-183.13904 58.069519 3.8900266
-182.81921 58.069519 3.5188048
-182.81921 68.627617 3.5188048
-182.41873 68.627617 3.2364883
-182.41873 79.185707 3.2364883
-181.96162 79.185707 3.0600228
-181.96162 89.743805 3.0600228
-181.96162 100.3019 3.0600228
-181.96162 110.85999 3.0600228
-182.41873 100.3019 3.2364883
-182.41873 110.85999 3.2364883
-182.81921 100.3019 3.5188048
-182.81921 110.85999 3.5188048
-183.13904 100.3019 3.8900266
-183.13904 110.85999 3.8900266
-183.13904 121.41809 3.8900266
-183.13904 131.97618 3.8900266
-182.81921 131.97618 3.5188048
-182.81921 142.53427 3.5188048
-182.41873 142.53427 3.2364883
-182.41873 153.09238 3.2364883
-181.96162 153.09238 3.0600228
-181.96162 163.65047 3.0600228
-181.96162 174.20856 3.0600228
-181.96162 184.76666 3.0600228
-182.41873 174.20856 3.2364883
-182.41873 184.76666 3.2364883
